137.64372 0.7891761 299.40997
138.04817 0.6324884 298.81992
138.46252 0.47196767 298.27234
138.8258 0.33123574 297.8368
139.17358 0.19650345 297.45883
139.45372 0.08798012 297.18378
140.22246 0.050190914 297.45883
139.91507 0.066650406 297.18378
140.21552 0.09995363 297.45883
139.92436 9.753392E-13 297.18378
139.90791 0.08798012 297.18378
140.20403 0.14886355 297.45883
140.58214 0.16848667 297.8368
140.98177 0.12055 298.27234
140.98734 9.751352E-13 298.27234
139.89883 0.10855922 297.18378
140.18805 0.19650345 297.45883
140.56274 0.25093162 297.8368
140.96509 0.2400715 298.27234
141.42422 0.16155021 298.81992
141.43169 9.750499E-13 298.81992
139.8879 0.12821214 297.18378
140.16776 0.24246684 297.45883
140.53584 0.33123574 297.8368
140.93745 0.3575448 298.27234
141.40189 0.32172212 298.81992
141.85612 0.20157139 299.40997
141.86543 9.749667E-13 299.40997
139.87517 0.14677118 297.18378
140.14331 0.28636158 297.45883
140.50163 0.40871382 297.8368
140.89911 0.47196767 298.27234
141.36485 0.47914925 298.81992
141.82825 0.401423 299.40997
142.2716 0.24007224 300.03528
142.28271 9.748867E-13 300.03528
139.86081 0.16407804 297.18378
140.11491 0.3278132 297.45883
140.46042 0.48270497 297.8368
140.85036 0.58236384 298.27234
141.31346 0.6324884 298.81992
141.78204 0.5978499 299.40997
142.2384 0.47809625 300.03528
142.66689 0.27669966 300.69055
142.67967 9.748105E-13 300.69055
139.8449 0.17998505 297.18378
140.08281 0.366468 297.45883
140.41255 0.5525778 297.8368
140.79164 0.6877916 298.27234
141.24814 0.78043145 298.81992
141.71791 0.7891761 299.40997
142.18338 0.71204126 300.03528
142.62862 0.5510386 300.69055
143.03856 0.31114098 301.37054
143.05295 9.74739E-13 301.37054
139.82759 0.19435647 297.18378
140.04729 0.40199628 297.45883
140.35844 0.6177363 297.8368
140.72343 0.78735125 298.27234
141.16943 0.92171603 298.81992
141.63641 0.97376937 299.40997
142.10701 0.9399115 300.03528
142.5652 0.82067627 300.69055
142.99553 0.6196274 301.37054
143.38428 0.343176 302.07095
143.40015 9.746723E-13 302.07095
139.80904 0.20706971 297.18378
140.00864 0.43409485 297.45883
140.29855 0.67762434 297.8368
140.64635 0.8801935 298.27234
141.07805 1.0551369 298.81992
141.53822 1.1500547 299.40997
142.00993 1.1597626 300.03528
142.47717 1.0833122 300.69055
142.92422 0.9228274 301.37054
143.3368 0.6834242 302.07095
143.70201 0.37261796 302.7876
143.71924 9.746111E-13 302.7876
139.78938 0.21801631 297.18378
139.96718 0.46248984 297.45883
140.2334 0.73173124 297.8368
140.561 0.9655263 298.27234
140.97473 1.1795558 298.81992
141.42418 1.3165282 299.40997
141.89299 1.3697191 300.03528
142.36528 1.3367058 300.69055
142.82524 1.2181542 301.37054
143.25816 1.0178416 302.07095
143.65047 0.74205685 302.7876
143.98997 0.3993024 303.51596
144.00844 9.745556E-13 303.51596
139.7688 0.22710288 297.18378
139.92328 0.48693904 297.45883
140.16353 0.77959526 297.8368
140.46817 1.0426216 298.27234
140.86037 1.293911 298.81992
141.29527 1.4717696 299.40997
141.75717 1.5679897 300.03528
142.2305 1.5786949 300.69055
142.69943 1.503088 301.37054
143.14899 1.3435752 302.07095
143.56506 1.1051648 302.7876
143.93475 0.7951981 303.51596
144.247 0.4231188 304.25217
144.26656 9.745061E-13 304.25217
139.74747 0.23425187 297.18378
139.87732 0.5072339 297.45883
140.08954 0.82080805 297.8368
140.3686 1.1108215 298.27234
140.73596 1.397227 298.81992
141.15259 1.6144543 299.40997
141.60364 1.7528827 300.03528
142.07396 1.8072153 300.69055
142.54787 1.7751981 301.37054
143.01022 1.6578459 302.07095
143.44653 1.458844 302.7876
143.84323 1.1843094 303.51596
144.18848 0.84262764 304.25217
144.4723 0.44399688 304.99277
144.49283 9.744627E-13 304.99277
139.72557 0.23940232 297.18378
139.82968 0.5232011 297.45883
140.01205 0.85501796 297.8368
140.26318 1.1695443 298.27234
140.60254 1.4886225 298.81992
140.99734 1.743365 299.40997
141.4337 1.9228207 300.03528
141.897 2.020317 300.69055
142.37184 2.032163 301.37054
142.84305 1.9579723 302.07095
143.29585 1.8000766 302.7876
143.7162 1.5633167 303.51596
144.0915 1.2549475 304.25217
144.4109 0.88420576 304.99277
144.6654 0.46188942 305.7345
144.68675 9.744254E-13 305.7345
139.7033 0.24251027 297.18378
139.78078 0.5347046 297.45883
139.93175 0.8819332 297.8368
140.15279 1.218289 298.27234
140.46124 1.5673175 298.81992
140.83087 1.8574022 299.40997
141.24881 2.0763538 300.03528
141.70114 2.2161825 300.69055
142.17285 2.2717898 301.37054
142.64891 2.241394 302.07095
143.11435 2.1259518 302.7876
143.55475 1.9289862 303.51596
143.9569 1.6565607 304.25217
144.30914 1.3168709 304.99277
144.60152 0.91983813 305.7345
144.826 0.47677183 306.47412
144.84805 9.743945E-13 306.47412
139.68082 0.24354921 297.18378
139.731 0.54164624 297.45883
139.8493 0.9013241 297.8368
140.03836 1.2566397 298.27234
140.31331 1.6326408 298.81992
140.65459 1.9555923 299.40997
141.05054 2.2121723 300.03528
141.48804 2.3931398 300.69055
141.9526 2.492035 301.37054
142.42943 2.5056932 302.07095
142.90355 2.4336889 302.7876
143.36023 2.2781982 303.51596
143.7858 2.0440404 304.25217
144.1679 1.7383009 304.99277
144.49565 1.3699391 305.7345
144.76007 0.94947594 306.47412
144.95409 0.48864022 307.20856
144.97667 9.743698E-13 307.20856
139.65834 0.24251027 297.18378
139.68082 0.5439667 297.45883
139.76543 0.9130252 297.8368
139.92088 1.2842691 298.27234
140.15997 1.684035 298.81992
140.47 2.0370984 299.40997
140.84058 2.3291173 300.03528
141.2595 2.54968 300.69055
141.71298 2.6910183 301.37054
142.18651 2.7486143 302.07095
142.66524 2.7206628 302.7876
143.13434 2.6079738 303.51596
143.5797 2.4140816 304.25217
143.98836 2.1449003 304.99277
144.34871 1.8083524 305.7345
144.65079 1.4140795 306.47412
144.8865 0.9731115 307.20856
145.05031 0.49755648 307.9393
145.0733 9.743512E-13 307.9393
139.63606 0.23940232 297.18378
139.63063 0.54164624 297.45883
139.68082 0.9169367 297.8368
139.80136 1.3009417 298.27234
140.00253 1.7210615 298.81992
140.27867 2.1012244 299.40997
140.62073 2.4261913 300.03528
141.01752 2.684467 300.69055
141.45601 2.8670435 301.37054
141.92221 2.9680855 302.07095
142.40147 2.984425 302.7876
142.87897 2.9154987 303.51596
143.34032 2.7635262 304.25217
143.77208 2.5332005 304.99277
144.16194 2.231337 305.7345
144.49911 1.8666188 306.47412
144.7745 1.4492805 307.20856
144.98149 0.990868 307.9393
145.0864 0.50090104 308.30237
145.10956 9.743443E-13 308.30237
139.61417 0.23425187 297.18378
139.58087 0.5347046 297.45883
139.5962 0.9130252 297.8368
139.68082 1.3065151 298.27234
139.84236 1.7434044 298.81992
140.08224 2.1474235 299.40997
140.39285 2.5025656 300.03528
140.76413 2.7963512 300.69055
141.1839 3.0186076 301.37054
141.6388 3.1622338 302.07095
142.1145 3.2227252 302.7876
142.59631 3.19815 303.51596
143.06972 3.0893936 304.25217
143.52089 2.899888 304.99277
143.93695 2.6352851 305.7345
144.30634 2.3032324 306.47412
144.61906 1.9130849 307.20856
144.86746 1.4757257 307.9393
145.01712 0.99752855 308.30237
145.13405 0.50531566 309.01144
145.15741 9.743352E-13 309.01144
139.59283 0.22710288 297.18378
139.53195 0.5232011 297.45883
139.51233 0.9013241 297.8368
139.56027 1.3009417 298.27234
139.68082 1.7508734 298.81992
139.88239 2.1753018 299.40997
140.15892 2.557589 300.03528
140.5015 2.884378 300.69055
140.89897 3.1444182 301.37054
141.33867 3.3294032 302.07095
141.80676 3.43353 302.7876
142.28879 3.4535153 303.51596
142.77022 3.3889034 304.25217
143.23694 3.2418346 304.99277
143.67564 3.0167499 305.7345
144.07408 2.720196 306.47412
144.42148 2.3605676 307.20856
144.70917 1.947993 307.9393
144.90231 1.4856454 308.30237
145.06415 1.0063201 309.01144
145.15063 0.506853 309.70578
145.17407 9.743319E-13 309.70578
139.57227 0.21801631 297.18378
139.48431 0.5072339 297.45883
139.42989 0.8819332 297.8368
139.44075 1.2842691 298.27234
139.51927 1.7434044 298.81992
139.68082 2.1846209 299.40997
139.92088 2.5907917 300.03528
140.23186 2.947796 300.69055
140.60364 3.2434018 301.37054
141.0244 3.4681673 302.07095
141.4809 3.6150413 302.7876
141.95901 3.6794167 303.51596
142.44435 3.6595004 304.25217
142.92265 3.5561233 304.99277
143.38025 3.3724763 305.7345
143.80435 3.1139517 306.47412
144.18344 2.7879105 307.20856
144.50798 2.403641 307.9393
144.74297 1.9610873 308.30237
144.94833 1.498739 309.01144
145.08054 1.0093817 309.70578
145.137 0.50558895 310.383
145.16037 9.743345E-13 310.383
139.55261 0.20706971 297.18378
139.43835 0.48693904 297.45883
139.34958 0.85501796 297.8368
139.32327 1.2566397 298.27234
139.3591 1.7210615 298.81992
139.47925 2.1753018 299.40997
139.68082 2.601891 300.03528
139.95752 2.9860647 300.69055
140.30045 3.314714 301.37054
140.69865 3.5773423 302.07095
141.13966 3.76571 302.7876
141.6098 3.8739266 303.51596
142.0949 3.8988755 304.25217
142.5807 3.8400724 304.99277
143.0533 3.6994305 305.7345
143.49945 3.4811404 306.47412
143.907 3.1914678 307.20856
144.26561 2.8387816 307.9393
144.54042 2.419798 308.30237
144.78758 1.9783713 309.01144
144.96437 1.5032986 309.70578
145.06706 1.0068643 310.383
145.0941 0.5016146 311.04074
145.1173 9.743429E-13 311.04074
139.53404 0.19435647 297.18378
139.39445 0.46248984 297.45883
139.27211 0.82080805 297.8368
139.20885 1.218289 298.27234
139.20168 1.684035 298.81992
139.27939 2.1474235 299.40997
139.44075 2.5907917 300.03528
139.68082 2.9988573 300.69055
139.99196 3.357746 301.37054
140.36424 3.6559963 302.07095
140.78598 3.8842514 302.7876
141.24414 4.035385 303.51596
141.72485 4.1049867 304.25217
142.21402 4.091259 304.99277
142.69757 3.9948225 305.7345
143.16196 3.8186288 306.47412
143.5945 3.567797 307.20856
143.98412 3.249703 307.9393
144.29643 2.8578637 308.30237
144.58325 2.4411244 309.01144
144.80312 1.98439 309.70578
144.95119 1.4995496 310.383
145.02472 0.9989495 311.04074
145.02307 0.49503294 311.67706
145.04596 9.743566E-13 311.67706
139.51674 0.17998505 297.18378
139.35301 0.43409485 297.45883
139.19812 0.77959526 297.8368
139.09845 1.1695443 298.27234
139.04832 1.6326408 298.81992
139.08296 2.1012244 299.40997
139.20273 2.557589 300.03528
139.40411 2.9860647 300.69055
139.68082 3.3721309 301.37054
140.02399 3.703459 302.07095
140.42288 3.9696536 302.7876
140.86513 4.162416 303.51596
141.33737 4.276076 304.25217
141.82571 4.3075404 304.99277
142.3161 4.2561316 305.7345
142.79477 4.1235385 306.47412
143.24861 3.913687 307.20856
143.66592 3.6328988 307.9393
144.01305 3.271547 308.30237
144.33711 2.8830514 309.01144
144.59818 2.4485514 309.70578
144.79034 1.9794412 310.383
144.90976 1.4877619 311.04074
144.9546 0.9858424 311.67706
144.92517 0.4859611 312.28992
144.94765 9.743754E-13 312.28992
139.50084 0.16407804 297.18378
139.31435 0.40199628 297.45883
139.12823 0.73173124 297.8368
138.99303 1.1108215 298.27234
138.90039 1.5673175 298.81992
138.89165 2.0370984 299.40997
138.96878 2.5025656 300.03528
139.12978 2.947796 300.69055
139.36967 3.357746 301.37054
139.68082 3.7193248 302.07095
140.05344 4.0211883 302.7876
140.47601 4.253934 303.51596
140.93576 4.410683 304.25217
141.41911 4.487072 304.99277
141.91216 4.481129 305.7345
142.40102 4.3932676 306.47412
142.87228 4.2261868 307.20856
143.31372 3.9851005 307.9393
143.6927 3.657319 308.30237
144.05122 3.3003807 309.01144
144.35127 2.8918226 309.70578
144.5859 2.4424448 310.383
144.75018 1.9638811 311.04074
144.84116 1.468241 311.67706
144.85796 0.9677762 312.28992
144.80176 0.47452566 312.87766
144.8237 9.743992E-13 312.87766
139.48647 0.14677118 297.18378
139.27882 0.366468 297.45883
139.06308 0.67762434 297.8368
138.89346 1.0426216 298.27234
138.7591 1.4886225 298.81992
138.70705 1.9555923 299.40997
138.7409 2.4261913 300.03528
138.86014 2.884378 300.69055
139.06119 3.314714 301.37054
139.33765 3.703459 302.07095
139.68082 4.0384154 302.7876
140.08012 4.3091593 303.51596
140.52345 4.50766 304.25217
140.9977 4.628321 304.99277
141.48917 4.6678953 305.7345
141.98405 4.6255145 306.47412
142.46873 4.5026298 307.20856
142.93053 4.3033023 307.9393
143.33813 4.011888 308.30237
143.72806 3.6895523 309.01144
144.06453 3.3104215 309.70578
144.33963 2.8846107 310.383
144.54735 2.4232452 311.04074
144.68367 1.9381131 311.67706
144.74658 1.4413345 312.28992
144.73613 0.9450029 312.87766
144.6543 0.4608602 313.43875
144.6756 9.744276E-13 313.43875
139.47375 0.12821214 297.18378
139.24672 0.3278132 297.45883
139.00319 0.6177363 297.8368
138.80063 0.9655263 298.27234
138.62569 1.397227 298.81992
138.53076 1.8574022 299.40997
138.52106 2.3291173 300.03528
138.5975 2.7963512 300.69055
138.758 3.2434018 301.37054
138.99739 3.6559963 302.07095
139.3082 4.0211883 302.7876
139.68082 4.32762 303.51596
140.10394 4.5661793 304.25217
140.56502 4.730083 304.99277
141.05075 4.8148365 305.7345
141.54744 4.8182983 306.47412
142.04138 4.7406583 307.20856
142.51959 4.5847898 307.9393
142.95236 4.3322287 308.30237
143.37038 4.047246 309.01144
143.74037 3.7007773 309.70578
144.05359 3.3021657 310.383
144.30301 2.861935 311.04074
144.48349 2.39145 311.67706
144.59198 1.9025959 312.28992
144.62738 1.4074175 312.87766
144.59055 0.9177885 313.43875
144.48431 0.4451101 313.97183
144.5049 9.744603E-13 313.97183
139.4628 0.10855922 297.18378
139.21832 0.28636158 297.45883
138.94908 0.5525778 297.8368
138.71529 0.8801935 298.27234
138.50127 1.293911 298.81992
138.36429 1.743365 299.40997
138.3111 2.2121723 300.03528
138.34412 2.684467 300.69055
138.46266 3.1444182 301.37054
138.66298 3.5773423 302.07095
138.93877 3.9696536 302.7876
139.28151 4.3091593 303.51596
139.68082 4.585741 304.25217
140.12482 4.791489 304.99277
140.60066 4.920699 305.7345
141.0949 4.969974 306.47412
141.5939 4.938241 307.20856
142.08446 4.8271613 307.9393
142.53868 4.6156087 308.30237
142.9812 4.3704104 309.01144
143.38159 4.0595593 309.70578
143.73026 3.691548 310.383
144.01921 3.2762077 311.04074
144.24236 2.8243835 311.67706
144.39548 2.347625 312.28992
144.47641 1.8578247 312.87766
144.48492 1.3668865 313.43875
144.42276 0.8864227 313.97183
144.2928 0.42736286 314.47736
144.31256 9.744973E-13 314.47736
139.44656 0.066650406 297.18378
139.15762 0.14886355 297.45883
138.79889 0.25093162 297.8368
138.42418 0.3575448 298.27234
137.99678 0.47914925 298.81992
137.57959 0.5978499 299.40997
137.17825 0.71204126 300.03528
136.79643 0.82067627 300.69055
136.43741 0.9228274 301.37054
136.10347 1.0178416 302.07095
135.79657 1.1051648 302.7876
135.5184 1.1843094 303.51596
135.27014 1.2549475 304.25217
135.05249 1.3168709 304.99277
134.86598 1.3699391 305.7345
134.71085 1.4140795 306.47412
134.58713 1.4492805 307.20856
134.49419 1.4757257 307.9393
134.45932 1.4856454 308.30237
134.4133 1.498739 309.01144
134.39728 1.5032986 309.70578
134.41045 1.4995496 310.383
134.45187 1.4877619 311.04074
134.5205 1.468241 311.67706
134.61505 1.4413345 312.28992
134.73425 1.4074175 312.87766
134.87671 1.3668865 313.43875
135.0409 1.3201727 313.97183
135.22589 1.2675352 314.47736
135.4029 1.2171731 314.89426
135.62106 1.1551006 315.34134
135.85493 1.0885581 315.75726
136.10301 1.0179753 316.14172
136.3638 0.94377154 316.49448
136.63593 0.86634713 316.81552
136.91869 0.78589445 317.10547
137.18616 0.70979005 317.34387
137.48453 0.6248979 317.573
137.78981 0.5380381 317.77103
138.10143 0.4493769 317.93826
138.41727 0.35951015 318.07422
138.74092 0.26742417 318.18042
139.04669 0.18042313 318.25122
139.34262 0.096224524 318.29318
139.44142 0.04475205 297.18378
139.14612 0.09995363 297.45883
138.7795 0.16848667 297.8368
138.39655 0.2400715 298.27234
137.95976 0.32172212 298.81992
137.5334 0.401423 299.40997
137.12323 0.47809625 300.03528
136.73302 0.5510386 300.69055
136.3661 0.6196274 301.37054
136.02483 0.6834242 302.07095
135.71117 0.74205685 302.7876
135.42688 0.7951981 303.51596
135.17316 0.84262764 304.25217
134.95073 0.88420576 304.99277
134.76012 0.91983813 305.7345
134.60156 0.94947594 306.47412
134.47513 0.9731115 307.20856
134.38014 0.990868 307.9393
134.34451 0.99752855 308.30237
134.29749 1.0063201 309.01144
134.2811 1.0093817 309.70578
134.29457 1.0068643 310.383
134.33691 0.9989495 311.04074
134.40703 0.9858424 311.67706
134.50368 0.9677762 312.28992
134.6255 0.9450029 312.87766
134.77109 0.9177885 313.43875
134.93887 0.8864227 313.97183
135.12794 0.85107964 314.47736
135.30884 0.81726414 314.89426
135.5318 0.7755859 315.34134
135.77081 0.7309064 315.75726
136.02434 0.683514 316.14172
136.29088 0.63369024 316.49448
136.56897 0.581704 316.81552
136.85796 0.52768457 317.10547
137.13132 0.4765846 317.34387
137.43623 0.41958424 317.573
137.74823 0.3612627 317.77103
138.0667 0.30173168 317.93826
138.3895 0.24139112 318.07422
138.72026 0.1795605 318.18042
139.03276 0.12114412 318.25122
139.33519 0.06460943 318.29318
139.3307 0.032443114 318.29318
139.02434 0.06083156 318.25122
138.70778 0.09016488 318.18042
138.37273 0.12121264 318.07422
138.04575 0.15151218 317.93826
137.72314 0.18140519 317.77103
137.4071 0.2106909 317.573
137.09822 0.23931319 317.34387
136.8213 0.2649726 317.10547
136.52858 0.29209805 316.81552
136.24687 0.3182025 316.49448
135.97687 0.34322113 316.14172
135.72005 0.36701885 315.75726
135.47794 0.3894543 315.34134
135.25209 0.4103827 314.89426
135.06883 0.42736286 314.47736
134.87732 0.4451101 313.97183
134.70735 0.4608602 313.43875
134.55988 0.47452566 312.87766
134.43646 0.4859611 312.28992
134.33856 0.49503294 311.67706
134.26753 0.5016146 311.04074
134.22464 0.50558895 310.383
134.211 0.506853 309.70578
134.2276 0.50531566 309.01144
134.27524 0.50090104 308.30237
134.31133 0.49755648 307.9393
134.40755 0.48864022 307.20856
134.53563 0.47677183 306.47412
134.69624 0.46188942 305.7345
134.88933 0.44399688 304.99277
135.11464 0.4231188 304.25217
135.37166 0.3993024 303.51596
135.65962 0.37261796 302.7876
135.97736 0.343176 302.07095
136.32307 0.31114098 301.37054
136.69475 0.27669966 300.69055
137.09003 0.24007224 300.03528
137.50551 0.20157139 299.40997
137.93741 0.16155021 298.81992
138.37988 0.12055 298.27234
138.76779 0.08460424 297.8368
139.13918 0.050190914 297.45883
139.43831 0.022471886 297.18378
139.43727 9.736852E-13 297.18378
139.13686 9.715874E-13 297.45883
138.76389 9.689829E-13 297.8368
138.3743 9.662626E-13 298.27234
137.92995 9.631596E-13 298.81992
137.4962 9.601307E-13 299.40997
137.07893 9.572169E-13 300.03528
136.68196 9.54445E-13 300.69055
136.30869 9.518384E-13 301.37054
135.96149 9.494139E-13 302.07095
135.6424 9.471858E-13 302.7876
135.3532 9.451663E-13 303.51596
135.09508 9.433638E-13 304.25217
134.8688 9.417838E-13 304.99277
134.67488 9.404296E-13 305.7345
134.51358 9.393033E-13 306.47412
134.38496 9.384051E-13 307.20856
134.28833 9.377303E-13 307.9393
134.25208 9.374772E-13 308.30237
134.20422 9.37143E-13 309.01144
134.18758 9.370267E-13 309.70578
134.20126 9.371223E-13 310.383
134.24434 9.374232E-13 311.04074
134.31567 9.379213E-13 311.67706
134.414 9.386078E-13 312.28992
134.53793 9.394733E-13 312.87766
134.68604 9.405075E-13 313.43875
134.85674 9.416995E-13 313.97183
135.04907 9.430426E-13 314.47736
135.23311 9.443277E-13 314.89426
135.45993 9.459115E-13 315.34134
135.70308 9.476095E-13 315.75726
135.961 9.494106E-13 316.14172
136.23215 9.513039E-13 316.49448
136.51508 9.532796E-13 316.81552
136.80905 9.553325E-13 317.10547
137.08716 9.572744E-13 317.34387
137.39735 9.594405E-13 317.573
137.71475 9.61657E-13 317.77103
138.03874 9.639193E-13 317.93826
138.36713 9.662124E-13 318.07422
138.70361 9.685621E-13 318.18042
139.02153 9.70782E-13 318.25122
139.32921 9.729305E-13 318.29318
145.15741 1.0136286E-12 309.01144
145.10956 1.0132946E-12 308.30237
145.0733 1.0130414E-12 307.9393
144.00844 1.0056054E-12 303.51596
144.26656 1.0074079E-12 304.25217
145.17407 1.013745E-12 309.70578
145.16037 1.0136493E-12 310.383
144.49283 1.008988E-12 304.99277
144.68675 1.0103421E-12 305.7345
144.84805 1.0114685E-12 306.47412
144.97667 1.0123666E-12 307.20856
145.04596 1.0128505E-12 311.67706
143.71924 1.003586E-12 302.7876
143.40015 1.0013577E-12 302.07095
145.1173 1.0133486E-12 311.04074
144.6756 1.0102642E-12 313.43875
143.05295 9.989334E-13 301.37054
142.67967 9.963267E-13 300.69055
142.28271 9.935547E-13 300.03528
144.94765 1.0121639E-12 312.28992
144.8237 1.0112985E-12 312.87766
144.5049 1.0090723E-12 313.97183
141.86543 9.90641E-13 299.40997
141.43169 9.876121E-13 298.81992
140.98734 9.845092E-13 298.27234
144.31256 1.0077292E-12 314.47736
144.12852 1.0064441E-12 314.89426
143.9017 1.0048601E-12 315.34134
143.65855 1.0031622E-12 315.75726
140.59775 9.817888E-13 297.8368
140.22478 9.791844E-13 297.45883
139.92436 9.770866E-13 297.18378
143.40063 1.0013612E-12 316.14172
143.12949 9.994678E-13 316.49448
142.55258 9.954393E-13 317.10547
142.84656 9.974921E-13 316.81552
140.65802 9.822096E-13 318.18042
140.3401 9.799896E-13 318.25122
140.9945 9.845593E-13 318.07422
140.03244 9.778412E-13 318.29318
142.27448 9.934973E-13 317.34387
141.96428 9.913311E-13 317.573
141.64688 9.891148E-13 317.77103
141.3229 9.868524E-13 317.93826
139.68082 9.753859E-13 0
146.95755 1.1239613 0.20706654
147.02225 0.56363446 0.20706654
140.69234 0.07765936 297.5407
140.68343 0.15486299 297.5407
140.69531 9.752054E-13 297.5407
143.70645 9.746696E-13 298.67233
143.69464 0.30815917 298.67233
147.89008 9.739252E-13 299.64926
147.866 0.628413 299.64926
152.21587 9.731555E-13 300.19757
152.17908 0.95954823 300.19757
157.32263 9.722468E-13 300.3898
157.27086 1.3504676 300.3898
162.99084 9.712382E-13 300.12607
162.92245 1.7843653 300.12607
169.52228 9.70076E-13 299.2802
169.43472 2.2843418 299.2802
176.00601 9.689223E-13 297.91776
175.89943 2.780667 297.91776
182.7643 9.677197E-13 295.97394
182.63788 3.298008 295.97394
189.69531 9.664865E-13 293.43903
189.54855 3.8285718 293.43903
196.9522 9.651953E-13 290.19656
196.78416 4.384082 290.19656
203.99513 9.63942E-13 286.45908
203.80643 4.923213 286.45908
210.99893 9.626959E-13 282.13644
210.78967 5.459348 282.13644
217.89403 9.61469E-13 277.2474
217.66454 5.987163 277.2474
224.62396 9.602715E-13 271.81097
224.37473 6.5023336 271.81097
231.13716 9.591126E-13 265.84903
230.8688 7.0009146 265.84903
237.38327 9.580011E-13 259.38934
237.09659 7.47905 259.38934
143.65927 0.61451 298.67233
147.79387 1.2531383 299.64926
152.06895 1.9134655 300.19757
157.11588 2.69301 300.3898
162.71767 3.5582592 300.12607
169.17255 4.5552783 299.2802
175.5803 5.545016 297.91776
182.25937 6.576662 295.97394
189.10916 7.6346765 293.43903
196.281 8.742435 290.19656
203.2414 9.817534 286.45908
210.16312 10.886659 282.13644
216.97742 11.939191 277.2474
223.62846 12.966509 271.81097
230.06534 13.960745 265.84903
236.23824 14.91421 259.38934
241.32127 15.699334 253.43466
140.66864 0.23115781 297.5407
143.60056 0.91725457 298.67233
147.67413 1.8705096 299.64926
151.88614 2.8561537 300.19757
156.85857 4.0197487 300.3898
162.37769 5.3112717 300.12607
168.73732 6.7994823 299.2802
175.0505 8.276825 297.91776
181.631 9.816721 295.97394
188.3797 11.395978 293.43903
195.4457 13.049486 290.19656
202.30338 14.654242 286.45908
209.12294 16.250084 282.13644
215.83667 17.821156 277.2474
222.38956 19.354591 271.81097
228.73145 20.838648 265.84903
234.81325 22.261847 259.38934
239.82127 23.433771 253.43466
245.31274 24.718824 246.1178
140.64804 0.3060961 297.5407
143.51884 1.2146163 298.67233
147.5075 2.4769042 299.64926
151.63168 3.782081 300.19757
156.50046 5.3228984 300.3898
161.90451 7.033116 300.12607
168.13156 9.003784 299.2802
174.31314 10.960061 297.91776
180.75645 12.999172 295.97394
187.36446 15.090403 293.43903
194.28316 17.279957 290.19656
200.99785 19.404953 286.45908
207.67525 21.518145 282.13644
214.24901 23.59854 277.2474
220.6653 25.629093 271.81097
226.87497 27.594263 265.84903
232.82999 29.478844 259.38934
237.73361 31.03069 253.43466
243.1106 32.73234 246.1178
248.11516 34.31613 238.4008
140.62177 0.3792381 297.5407
143.4146 1.5048503 298.67233
147.29494 3.068763 299.64926
151.3071 4.6858134 300.19757
156.04364 6.5948105 300.3898
161.30092 8.713687 300.12607
167.35886 11.155249 299.2802
173.37253 13.57898 297.91776
179.64085 16.10534 295.97394
186.06938 18.69627 293.43903
192.80017 21.409021 290.19656
199.3325 24.041788 286.45908
205.82855 26.659927 282.13644
212.22377 29.237436 277.2474
218.46579 31.753193 271.81097
224.50679 34.187943 265.84903
230.30008 36.522846 259.38934
235.07053 38.445507 253.43466
240.30147 40.553772 246.1178
245.17012 42.516006 238.4008
249.65141 44.322132 230.31085
140.58998 0.4501546 297.5407
143.28845 1.7862532 298.67233
147.03767 3.6426134 299.64926
150.91429 5.5620475 300.19757
155.4908 7.8280225 300.3898
160.57047 10.3431225 300.12607
166.4237 13.24125 299.2802
172.2342 16.118212 297.91776
178.29074 19.116995 295.97394
184.50209 22.192423 293.43903
191.00546 25.412449 290.19656
197.3171 28.537537 286.45908
203.59366 31.64526 282.13644
209.77281 34.704758 277.2474
215.80392 37.690956 271.81097
221.64084 40.58099 265.84903
227.23839 43.35252 259.38934
231.84766 45.63471 253.43466
236.90189 48.137215 246.1178
241.60602 50.466385 238.4008
245.93591 52.610252 230.31085
249.8644 54.555367 221.8852
140.55286 0.5184294 297.5407
143.14113 2.0571735 298.67233
146.73726 4.195087 299.64926
150.45557 6.4056416 300.19757
154.84518 9.015296 300.3898
159.7174 11.9118595 300.12607
165.33163 15.249546 299.2802
170.90486 18.562857 297.91776
176.71407 22.016462 295.97394
182.67175 25.55834 293.43903
188.90956 29.266747 290.19656
194.96346 32.865814 286.45908
200.9837 36.44489 282.13644
206.91052 39.968414 277.2474
212.69536 43.407528 271.81097
218.2939 46.735897 265.84903
223.66289 49.927784 259.38934
228.08392 52.556114 253.43466
232.93175 55.438168 246.1178
237.44379 58.120605 238.4008
241.59686 60.58963 230.31085
245.36493 62.82976 221.8852
248.72513 64.82742 213.1623
140.5106 0.58366185 297.5407
142.9735 2.3160217 298.67233
146.39542 4.722943 299.64926
149.9336 7.2116446 300.19757
154.11058 10.149663 300.3898
158.74678 13.410695 300.12607
164.08904 17.168352 299.2802
169.39227 20.898565 297.91776
174.92006 24.786728 295.97394
180.58914 28.774271 293.43903
186.52477 32.949295 290.19656
192.28539 37.001225 286.45908
198.01399 41.030643 282.13644
203.6537 44.997524 277.2474
209.1583 48.869373 271.81097
214.48564 52.61654 265.84903
219.59453 56.21005 259.38934
223.80139 59.16909 253.43466
228.41437 62.413788 246.1178
232.70784 65.43375 238.4008
236.65973 68.21345 230.31085
240.24525 70.73545 221.8852
243.44267 72.98447 213.1623
246.23317 74.94725 204.18144
140.4635 0.6454691 297.5407
142.78654 2.5612783 298.67233
146.01418 5.223082 299.64926
149.35147 7.975327 300.19757
153.29129 11.224469 300.3898
157.66425 14.83083 300.12607
162.70319 18.986406 299.2802
167.70532 23.111635 297.91776
172.91925 27.411537 295.97394
178.26646 31.821344 293.43903
183.86507 36.438484 290.19656
189.29861 40.9195 286.45908
194.70198 45.37561 282.13644
200.02147 49.76257 277.2474
205.21353 54.04443 271.81097
210.2384 58.188404 265.84903
215.0572 62.162453 259.38934
219.02522 65.434845 253.43466
223.37628 69.02314 246.1178
227.42598 72.3629 238.4008
231.15349 75.43696 230.31085
234.53545 78.22603 221.8852
237.55132 80.7132 213.1623
240.18336 82.88384 204.18144
242.41637 84.72538 194.98323
140.41179 0.7034885 297.5407
142.58138 2.7915046 298.67233
145.59576 5.6925707 299.64926
148.71259 8.692206 300.19757
152.39212 12.233406 300.3898
156.4762 16.163933 300.12607
161.18224 20.69304 299.2802
165.85391 25.189075 297.91776
170.72339 29.875483 295.97394
175.71735 34.681675 293.43903
180.94609 39.71384 290.19656
186.02068 44.597637 286.45908
191.06706 49.454296 282.13644
196.03513 54.235588 277.2474
200.88419 58.902332 271.81097
205.57709 63.418797 265.84903
210.07755 67.75006 259.38934
213.78342 71.3166 253.43466
217.84703 75.22744 246.1178
221.6292 78.86741 238.4008
225.11044 82.21777 230.31085
228.26897 85.257545 221.8852
231.0856 87.96829 213.1623
233.54378 90.334045 204.18144
235.62926 92.34111 194.98323
237.33035 93.97825 185.6084
140.35579 0.75737965 297.5407
142.35918 3.0053492 298.67233
145.14265 6.1286526 299.64926
148.0207 9.358077 300.19757
151.41837 13.170551 300.3898
155.18958 17.402178 300.12607
159.53511 22.278242 299.2802
163.8489 27.118696 297.91776
168.34537 32.16411 295.97394
172.95674 37.33848 293.43903
177.78494 42.756138 290.19656
182.47078 48.014057 286.45908
187.1306 53.242767 282.13644
191.71808 58.39033 277.2474
196.19566 63.414574 271.81097
200.52907 68.27702 265.84903
204.68477 72.94008 259.38934
208.10675 76.77985 253.43466
211.85907 80.99028 246.1178
215.3515 84.90907 238.4008
218.56607 88.516106 230.31085
221.48264 91.78875 221.8852
224.08351 94.70714 213.1623
226.35336 97.25413 204.18144
228.27908 99.41495 194.98323
229.84985 101.1775 185.6084
231.05743 102.5325 176.09459
140.29584 0.8068261 297.5407
142.12126 3.2015572 298.67233
144.65749 6.528769 299.64926
147.27988 9.969031 300.19757
150.37573 14.030407 300.3898
153.81195 18.5383 300.12607
157.77147 23.732704 299.2802
161.70207 28.889174 297.91776
165.79912 34.263985 295.97394
170.00087 39.77617 293.43903
174.40019 45.547523 290.19656
178.66978 51.148716 286.45908
182.91568 56.71879 282.13644
187.09566 62.20241 277.2474
191.1755 67.55467 271.81097
195.12398 72.73458 265.84903
198.91054 77.702065 259.38934
202.02853 81.79251 253.43466
205.44754 86.277824 246.1178
208.62975 90.45247 238.4008
211.55876 94.29499 230.31085
214.21625 97.78129 221.8852
216.58609 100.89021 213.1623
218.65431 103.603485 204.18144
220.40898 105.90537 194.98323
221.84023 107.78299 185.6084
222.94052 109.226456 176.09459
223.70306 110.22681 166.49152
140.23227 0.8515378 297.5407
141.86902 3.378977 298.67233
144.14311 6.890572 299.64926
146.49446 10.521482 300.19757
149.27034 14.807927 300.3898
152.3514 19.565632 300.12607
155.90167 25.047895 299.2802
159.42603 30.49012 297.91776
163.0996 36.16278 295.97394
166.86707 41.980434 293.43903
170.81169 48.07162 290.19656
174.64 53.98321 286.45908
178.44704 59.861958 282.13644
182.19499 65.649475 277.2474
185.85315 71.29833 271.81097
189.39352 76.76529 265.84903
192.7887 82.008064 259.38934
195.58444 86.32518 253.43466
198.65007 91.05906 246.1178
201.50336 95.46506 238.4008
204.12965 99.520515 230.31085
206.51247 103.200005 221.8852
208.63736 106.481224 213.1623
210.49182 109.34485 204.18144
212.06512 111.7743 194.98323
213.34843 113.75598 185.6084
214.33502 115.279434 176.09459
215.01875 116.33523 166.49152
215.39647 116.91849 156.83925
140.16547 0.8912523 297.5407
141.60394 3.5365677 298.67233
143.60254 7.211939 299.64926
145.66905 11.01219 300.19757
148.10866 15.498548 300.3898
150.81648 20.478146 300.12607
153.93668 26.216091 299.2802
157.03409 31.912132 297.91776
160.26265 37.84936 295.97394
163.57373 43.938343 293.43903
167.0405 50.313614 290.19656
170.40504 56.50091 286.45908
173.7509 62.65384 282.13644
177.04482 68.71127 277.2474
180.25984 74.62359 271.81097
183.37132 80.34552 265.84903
186.35522 85.8328 259.38934
188.81229 90.351265 253.43466
191.50655 95.30592 246.1178
194.01419 99.91741 238.4008
196.32233 104.16201 230.31085
198.41649 108.01311 221.8852
200.28397 111.44736 213.1623
201.91379 114.44454 204.18144
203.2965 116.987305 194.98323
204.42435 119.06139 185.6084
205.29143 120.65591 176.09459
205.89232 121.76093 166.49152
206.22427 122.37141 156.83925
206.28586 122.48466 147.17896
140.09583 0.9257366 297.5407
141.32758 3.6734045 298.67233
143.03897 7.4909825 299.64926
144.80852 11.438272 300.19757
146.89754 16.098219 300.3898
149.21622 21.270485 300.12607
151.88803 27.230446 299.2802
154.54031 33.146877 297.91776
157.30492 39.31383 295.97394
160.14018 45.638405 293.43903
163.10875 52.260345 290.19656
165.98979 58.687042 286.45908
168.85483 65.07803 282.13644
171.67538 71.36984 277.2474
174.42839 77.510925 271.81097
177.09274 83.45425 265.84903
179.64783 89.15385 259.38934
181.7518 93.84714 253.43466
184.05887 98.9935 246.1178
186.20616 103.78342 238.4008
188.1826 108.192245 230.31085
189.97581 112.192345 221.8852
191.57494 115.759476 213.1623
192.97054 118.87263 204.18144
194.15454 121.51377 194.98323
195.12032 123.66812 185.6084
195.86278 125.324326 176.09459
196.37733 126.4721 166.49152
196.66159 127.10619 156.83925
196.71432 127.22383 147.17896
196.53549 126.82493 137.5509
140.02374 0.9547883 297.5407
141.04155 3.7886844 298.67233
142.45569 7.7260666 299.64926
143.91788 11.797232 300.19757
145.64404 16.603416 300.3898
147.56 21.938002 300.12607
149.76773 28.084997 299.2802
151.95935 34.1871 297.91776
154.24376 40.54759 295.97394
156.58656 47.07064 293.43903
159.0395 53.900394 290.19656
161.42014 60.528778 286.45908
163.78754 67.12034 282.13644
166.11821 73.60959 277.2474
168.39304 79.94339 271.81097
170.5946 86.07323 265.84903
172.7059 91.9517 259.38934
174.44443 96.792274 253.43466
176.35078 102.10014 246.1178
178.12509 107.04037 238.4008
179.75826 111.58756 230.31085
181.24 115.7132 221.8852
182.56137 119.392265 213.1623
183.71457 122.60312 204.18144
184.69292 125.32714 194.98323
185.49095 127.549095 185.6084
186.10446 129.25728 176.09459
186.52963 130.44109 166.49152
186.76451 131.09508 156.83925
186.80809 131.2164 147.17896
186.66032 130.805 137.5509
186.32214 129.8634 127.99552
139.94965 0.9782369 297.5407
140.74754 3.8817306 298.67233
141.85612 7.9158115 299.64926
143.00237 12.08696 300.19757
144.35558 17.011179 300.3898
145.85754 22.476778 300.12607
147.58826 28.774736 299.2802
149.30632 35.026703 297.91776
151.09714 41.543396 295.97394
152.93373 48.226646 293.43903
154.85667 55.224133 290.19656
156.72292 62.0153 286.45908
158.5788 68.76874 282.13644
160.40587 75.417366 277.2474
162.18918 81.90672 271.81097
163.91505 88.187096 265.84903
165.57016 94.20994 259.38934
166.93304 99.169395 253.43466
168.42749 104.60762 246.1178
169.81844 109.669174 238.4008
171.09871 114.32804 230.31085
172.2603 118.555 221.8852
173.29616 122.324425 213.1623
174.20018 125.61412 204.18144
174.96715 128.40504 194.98323
175.59274 130.68158 185.6084
176.07368 132.43172 176.09459
176.407 133.64459 166.49152
176.59113 134.31464 156.83925
176.62529 134.43895 147.17896
176.50945 134.01743 137.5509
176.24434 133.0527 127.99552
175.83142 131.55011 118.551674
139.87396 0.995945 297.5407
140.44727 3.951997 298.67233
141.24379 8.059103 299.64926
142.06738 12.305757 300.19757
143.03966 17.319113 300.3898
144.11884 22.88365 300.12607
145.36237 29.295614 299.2802
146.59682 35.66075 297.91776
147.88353 42.295406 295.97394
149.20312 49.099644 293.43903
150.58478 56.223793 290.19656
151.92569 63.137897 286.45908
153.25916 70.01359 282.13644
154.57191 76.78257 277.2474
155.85324 83.38939 271.81097
157.09329 89.783455 265.84903
158.2825 95.91532 259.38934
159.26173 100.964554 253.43466
160.33551 106.50121 246.1178
161.33492 111.654396 238.4008
162.2548 116.3976 230.31085
163.08942 120.701065 221.8852
163.83368 124.53873 213.1623
164.48323 127.88798 204.18144
165.0343 130.72943 194.98323
165.4838 133.04716 185.6084
165.82936 134.82896 176.09459
166.06883 136.06381 166.49152
166.20114 136.74599 156.83925
166.22568 136.87254 147.17896
166.14246 136.44339 137.5509
165.95197 135.46121 127.99552
165.65529 133.93141 118.551674
165.25394 131.86194 109.25759
139.79716 1.0078082 297.5407
140.14249 3.999072 298.67233
140.62228 8.1551 299.64926
141.11838 12.452339 300.19757
141.70404 17.525412 300.3898
142.3541 23.15623 300.12607
143.10313 29.644573 299.2802
143.84671 36.08553 297.91776
144.62178 42.799217 295.97394
145.41666 49.6845 293.43903
146.2489 56.893513 290.19656
147.05661 63.889973 286.45908
147.85982 70.847565 282.13644
148.65057 77.697174 277.2474
149.4224 84.38269 271.81097
150.16934 90.85292 265.84903
150.88567 97.05782 259.38934
151.47552 102.167206 253.43466
152.12231 107.76982 246.1178
152.72432 112.98438 238.4008
153.27841 117.78408 230.31085
153.78114 122.13882 221.8852
154.22946 126.02219 213.1623
154.62073 129.41135 204.18144
154.95267 132.28664 194.98323
155.22342 134.63197 185.6084
155.43158 136.43501 176.09459
155.57584 137.68456 166.49152
155.65552 138.37486 156.83925
155.6703 138.50293 147.17896
155.62018 138.06866 137.5509
155.50543 137.07478 127.99552
155.32672 135.52676 118.551674
155.08496 133.43265 109.25759
154.78139 130.80298 100.15048
139.71968 1.0137575 297.5407
139.835 4.022679 298.67233
139.99525 8.20324 299.64926
140.16095 12.525846 300.19757
140.35655 17.628866 300.3898
140.57365 23.292923 300.12607
140.82382 29.819567 299.2802
141.07217 36.298546 297.91776
141.33104 43.05186 295.97394
141.59651 49.97779 293.43903
141.87447 57.22936 290.19656
142.14423 64.26712 286.45908
142.41249 71.26578 282.13644
142.6766 78.15582 277.2474
142.93437 84.880806 271.81097
143.18385 91.38923 265.84903
143.4231 97.63076 259.38934
143.62009 102.77031 253.43466
143.8361 108.40599 246.1178
144.03717 113.65134 238.4008
144.22223 118.47936 230.31085
144.39014 122.8598 221.8852
144.53987 126.7661 213.1623
144.67055 130.17526 204.18144
144.78142 133.06754 194.98323
144.87184 135.42671 185.6084
144.94136 137.2404 176.09459
144.98953 138.49731 166.49152
145.01616 139.19168 156.83925
145.02109 139.32051 147.17896
145.00435 138.88368 137.5509
144.96603 137.88394 127.99552
144.90634 136.32678 118.551674
144.82559 134.22029 109.25759
144.72421 131.5751 100.15048
144.60318 128.41788 91.30095
139.64195 1.0137575 297.5407
139.52663 4.022679 298.67233
139.36638 8.20324 299.64926
139.2007 12.525846 300.19757
139.00508 17.628866 300.3898
138.78798 23.292923 300.12607
138.53781 29.819567 299.2802
138.28946 36.298546 297.91776
138.03061 43.05186 295.97394
137.76512 49.97779 293.43903
137.48717 57.22936 290.19656
137.2174 64.26712 286.45908
136.94914 71.26578 282.13644
136.68504 78.15582 277.2474
136.42726 84.880806 271.81097
136.1778 91.38923 265.84903
135.93855 97.63076 259.38934
135.74155 102.77031 253.43466
135.52553 108.40599 246.1178
135.32446 113.65134 238.4008
135.1394 118.47936 230.31085
134.9715 122.8598 221.8852
134.82176 126.7661 213.1623
134.69109 130.17526 204.18144
134.58023 133.06754 194.98323
134.48979 135.42671 185.6084
134.42027 137.2404 176.09459
134.3721 138.49731 166.49152
134.34547 139.19168 156.83925
134.34055 139.32051 147.17896
134.35728 138.88368 137.5509
134.39561 137.88394 127.99552
134.45529 136.32678 118.551674
134.53604 134.22029 109.25759
134.63744 131.5751 100.15048
134.75845 128.41788 91.30095
134.89948 124.73855 82.67261
139.56447 1.0078082 297.5407
139.21915 3.999072 298.67233
138.73935 8.1551 299.64926
138.24326 12.452339 300.19757
137.6576 17.525412 300.3898
137.00754 23.15623 300.12607
136.2585 29.644573 299.2802
135.51492 36.08553 297.91776
134.73985 42.799217 295.97394
133.94499 49.6845 293.43903
133.11273 56.893513 290.19656
132.30504 63.889973 286.45908
131.50182 70.847565 282.13644
130.71106 77.697174 277.2474
129.93925 84.38269 271.81097
129.19229 90.85292 265.84903
128.47597 97.05782 259.38934
127.88611 102.167206 253.43466
127.23932 107.76982 246.1178
126.63732 112.98438 238.4008
126.08322 117.78408 230.31085
125.58049 122.13882 221.8852
125.13217 126.02219 213.1623
124.74091 129.41135 204.18144
124.40897 132.28664 194.98323
124.138214 134.63197 185.6084
123.93006 136.43501 176.09459
123.785805 137.68456 166.49152
123.706116 138.37486 156.83925
123.69133 138.50293 147.17896
123.74146 138.06866 137.5509
123.8562 137.07478 127.99552
124.03491 135.52676 118.551674
124.27667 133.43265 109.25759
124.58025 130.80298 100.15048
124.9426 127.66427 91.30095
125.36487 124.00654 82.67261
125.84374 119.85847 74.33408
139.48767 0.995945 297.5407
138.91437 3.951997 298.67233
138.11784 8.059103 299.64926
137.29425 12.305757 300.19757
136.32198 17.319113 300.3898
135.2428 22.88365 300.12607
133.99927 29.295614 299.2802
132.76482 35.66075 297.91776
131.4781 42.295406 295.97394
130.15851 49.099644 293.43903
128.77686 56.223793 290.19656
127.43594 63.137897 286.45908
126.102486 70.01359 282.13644
124.78972 76.78257 277.2474
123.5084 83.38939 271.81097
122.26834 89.783455 265.84903
121.07914 95.91532 259.38934
120.0999 100.964554 253.43466
119.02612 106.50121 246.1178
118.026726 111.654396 238.4008
117.106834 116.3976 230.31085
116.272224 120.701065 221.8852
115.527954 124.53873 213.1623
114.8784 127.88798 204.18144
114.32734 130.72943 194.98323
113.87784 133.04716 185.6084
113.53228 134.82896 176.09459
113.29279 136.06381 166.49152
113.1605 136.74599 156.83925
113.135956 136.87254 147.17896
113.219185 136.44339 137.5509
113.40966 135.46121 127.99552
113.70635 133.93141 118.551674
114.107704 131.86194 109.25759
114.61169 129.26324 100.15048
115.21324 126.16148 91.30095
115.91427 122.54681 82.67261
116.70927 118.44756 74.33408
117.59457 113.88273 66.316696
139.41199 0.9782369 297.5407
138.6141 3.8817306 298.67233
137.50551 7.9158115 299.64926
136.35927 12.08696 300.19757
135.00606 17.011179 300.3898
133.50409 22.476778 300.12607
131.77338 28.774736 299.2802
130.05531 35.026703 297.91776
128.2645 41.543396 295.97394
126.4279 48.226646 293.43903
124.50496 55.224133 290.19656
122.63871 62.0153 286.45908
120.78284 68.76874 282.13644
118.955765 75.417366 277.2474
117.172455 81.90672 271.81097
115.44658 88.187096 265.84903
113.79147 94.20994 259.38934
112.42859 99.169395 253.43466
110.93414 104.60762 246.1178
109.5432 109.669174 238.4008
108.262924 114.32804 230.31085
107.10133 118.555 221.8852
106.065475 122.324425 213.1623
105.16145 125.61412 204.18144
104.39449 128.40504 194.98323
103.76889 130.68158 185.6084
103.28795 132.43172 176.09459
102.95464 133.64459 166.49152
102.77051 134.31464 156.83925
102.73635 134.43895 147.17896
102.85219 134.01743 137.5509
103.117294 133.0527 127.99552
103.53021 131.55011 118.551674
104.088806 129.51744 109.25759
104.790245 126.96493 100.15048
105.627464 123.91833 91.30095
106.603134 120.36791 82.67261
107.709595 116.34156 74.33408
108.941734 111.85789 66.316696
110.29394 106.93728 58.650047
139.3379 0.9547883 297.5407
138.32008 3.7886844 298.67233
136.90594 7.7260666 299.64926
135.44376 11.797232 300.19757
133.71759 16.603416 300.3898
131.80164 21.938002 300.12607
129.5939 28.084997 299.2802
127.40229 34.1871 297.91776
125.117874 40.54759 295.97394
122.77508 47.07064 293.43903
120.32212 53.900394 290.19656
117.9415 60.528778 286.45908
115.57409 67.12034 282.13644
113.24343 73.60959 277.2474
110.968605 79.94339 271.81097
108.76703 86.07323 265.84903
106.65574 91.9517 259.38934
104.917206 96.792274 253.43466
103.01086 102.10014 246.1178
101.236534 107.04037 238.4008
99.60338 111.58756 230.31085
98.121635 115.7132 221.8852
96.80027 119.392265 213.1623
95.64707 122.60312 204.18144
94.66872 125.32714 194.98323
93.87069 127.549095 185.6084
93.25718 129.25728 176.09459
92.83201 130.44109 166.49152
92.59713 131.09508 156.83925
92.55355 131.2164 147.17896
92.70132 130.805 137.5509
93.03949 129.8634 127.99552
93.56622 128.3968 118.551674
94.27878 126.41286 109.25759
95.173546 123.92155 100.15048
96.24153 120.94797 91.30095
97.486115 117.482666 82.67261
98.897545 113.55282 74.33408
100.469284 109.17662 66.316696
102.1942 104.37396 58.650047
104.064575 99.16628 51.36189
139.26582 0.9257366 297.5407
138.03406 3.6734045 298.67233
136.32266 7.4909825 299.64926
134.55313 11.438272 300.19757
132.46411 16.098219 300.3898
130.14542 21.270485 300.12607
127.47361 27.230446 299.2802
124.82132 33.146877 297.91776
122.05672 39.31383 295.97394
119.22146 45.638405 293.43903
116.25289 52.260345 290.19656
113.37185 58.687042 286.45908
110.50681 65.07803 282.13644
107.68624 71.36984 277.2474
104.93324 77.510925 271.81097
102.2689 83.45425 265.84903
99.713806 89.15385 259.38934
97.60984 93.84714 253.43466
95.30276 98.9935 246.1178
93.15548 103.78342 238.4008
91.17903 108.192245 230.31085
89.38582 112.192345 221.8852
87.7867 115.759476 213.1623
86.3911 118.87263 204.18144
85.20709 121.51377 194.98323
84.24132 123.66812 185.6084
83.49885 125.324326 176.09459
82.98431 126.4721 166.49152
82.70005 127.10619 156.83925
82.647316 127.22383 147.17896
82.82614 126.82493 137.5509
83.235405 125.911995 127.99552
83.872856 124.490036 118.551674
84.73518 122.566444 109.25759
85.81804 120.15094 100.15048
87.11051 117.26783 91.30095
88.616714 113.907974 82.67261
90.32483 110.0977 74.33408
92.22696 105.85466 66.316696
94.31444 101.19813 58.650047
96.57797 96.14891 51.36189
99.007614 90.72914 44.47815
139.19617 0.8912523 297.5407
137.75769 3.5365677 298.67233
135.7591 7.211939 299.64926
133.69258 11.01219 300.19757
131.25298 15.498548 300.3898
128.54515 20.478146 300.12607
125.42496 26.216091 299.2802
122.32755 31.912132 297.91776
119.09898 37.84936 295.97394
115.7879 43.938343 293.43903
112.321144 50.313614 290.19656
108.9566 56.50091 286.45908
105.61074 62.65384 282.13644
102.31682 68.71127 277.2474
99.1018 74.62359 271.81097
95.99031 80.34552 265.84903
93.00642 85.8328 259.38934
90.549355 90.351265 253.43466
87.855095 95.30592 246.1178
85.34745 99.91741 238.4008
83.03931 104.16201 230.31085
80.94515 108.01311 221.8852
79.07767 111.44736 213.1623
77.44785 114.44454 204.18144
76.06514 116.987305 194.98323
74.93729 119.06139 185.6084
74.07021 120.65591 176.09459
73.46932 121.76093 166.49152
73.13736 122.37141 156.83925
73.075775 122.48466 147.17896
73.284615 122.10062 137.5509
73.76255 121.221695 127.99552
74.50698 119.8527 118.551674
75.51403 118.00076 109.25759
76.77862 115.67523 100.15048
78.288 112.89953 91.30095
80.046974 109.66482 82.67261
82.041756 105.99649 74.33408
84.2631 101.9115 66.316696
86.70091 97.42844 58.650047
89.344315 92.56729 51.36189
92.18171 87.34942 44.47815
95.20087 81.79727 38.022728
139.12936 0.8515378 297.5407
137.49261 3.378977 298.67233
135.21852 6.890572 299.64926
132.86717 10.521482 300.19757
130.09131 14.807927 300.3898
127.01024 19.565632 300.12607
123.45997 25.047895 299.2802
119.935616 30.49012 297.91776
116.26204 36.16278 295.97394
112.49456 41.980434 293.43903
108.54995 48.07162 290.19656
104.72164 53.98321 286.45908
100.914604 59.861958 282.13644
97.16665 65.649475 277.2474
93.508484 71.29833 271.81097
89.96812 76.76529 265.84903
86.57294 82.008064 259.38934
83.77719 86.32518 253.43466
80.71156 91.05906 246.1178
77.85828 95.46506 238.4008
75.23199 99.520515 230.31085
72.84917 103.200005 221.8852
70.72427 106.481224 213.1623
68.869804 109.34485 204.18144
67.29651 111.7743 194.98323
66.01319 113.75598 185.6084
65.02661 115.279434 176.09459
64.34289 116.33523 166.49152
63.96517 116.91849 156.83925
63.8951 117.026695 147.17896
64.13272 116.65977 137.5509
64.67654 115.82001 127.99552
65.52359 114.51202 118.551674
66.66944 112.7426 109.25759
68.10834 110.520706 100.15048
69.82576 107.86868 91.30095
71.827194 104.77812 82.67261
74.096924 101.27325 74.33408
76.62445 97.37029 66.316696
79.39829 93.08699 58.650047
82.40605 88.44247 51.36189
85.63455 83.4571 44.47815
89.06986 78.15236 38.022728
92.697426 72.55075 32.017647
139.0658 0.8068261 297.5407
137.24037 3.2015572 298.67233
134.70415 6.528769 299.64926
132.08176 9.969031 300.19757
128.9859 14.030407 300.3898
125.54968 18.5383 300.12607
121.590164 23.732704 299.2802
117.65956 28.889174 297.91776
113.562515 34.263985 295.97394
109.36076 39.77617 293.43903
104.96145 45.547523 290.19656
100.69185 51.148716 286.45908
96.44596 56.71879 282.13644
92.265976 62.20241 277.2474
88.18613 67.55467 271.81097
84.23766 72.73458 265.84903
80.4511 77.702065 259.38934
77.3331 81.79251 253.43466
73.914085 86.277824 246.1178
70.731895 90.45247 238.4008
67.80287 94.29499 230.31085
65.14538 97.78129 221.8852
62.77555 100.89021 213.1623
60.707317 103.603485 204.18144
58.95266 105.90537 194.98323
57.52141 107.78299 185.6084
56.42111 109.226456 176.09459
55.658573 110.22681 166.49152
55.23731 110.77946 156.83925
55.15916 110.88197 147.17896
55.424175 110.53431 137.5509
56.03068 109.73865 127.99552
56.975365 108.49934 118.551674
58.25331 106.82283 109.25759
59.858063 104.7176 100.15048
61.773464 102.20482 91.30095
64.00561 99.276535 82.67261
66.53697 95.95569 74.33408
69.35585 92.25767 66.316696
72.44944 88.19927 58.650047
75.80391 83.798615 51.36189
79.40456 79.07502 44.47815
83.23586 74.04881 38.022728
87.28158 68.741325 32.017647
91.19367 63.609154 26.889324
139.00584 0.75737965 297.5407
137.00246 3.0053492 298.67233
134.21898 6.1286526 299.64926
131.34093 9.358077 300.19757
127.94327 13.170551 300.3898
124.17206 17.402178 300.12607
119.82652 22.278242 299.2802
115.512726 27.118696 297.91776
111.01627 32.16411 295.97394
106.40489 37.33848 293.43903
101.57669 42.756138 290.19656
96.890854 48.014057 286.45908
92.23104 53.242767 282.13644
