32.980778 54.040604 75.91094
37.279346 51.912247 67.58765
41.992695 49.57852 59.642464
47.098717 47.050365 52.103878
52.574203 44.339283 44.99799
58.394814 41.457317 38.348675
64.53509 38.417072 32.177837
70.931435 35.25004 26.536018
77.62997 31.933382 21.376371
84.56761 28.498337 16.747862
91.71622 24.958834 12.66408
99.04748 21.328897 9.136409
106.53297 17.622597 6.1742964
114.14377 13.854247 3.7853122
140.69673 0.57553035 316.12762
137.2717 1.9559435 316.83606
132.62186 3.8299923 317.21667
127.902176 5.732198 317.12643
122.468765 7.922059 316.54602
116.55122 10.307043 315.41013
110.26136 12.842084 313.67838
103.703094 15.485302 311.3281
96.96888 18.199436 308.34958
90.139404 20.951962 304.74146
88.09964 21.774061 303.54684
81.15764 24.571938 299.06424
74.38701 27.300749 294.04025
67.74284 29.978584 288.43115
61.282196 32.582462 282.2621
55.05605 35.091824 275.56104
49.10998 37.488304 268.35815
44.477642 39.355305 262.10742
39.139412 41.506805 254.06783
34.196774 43.49887 245.63599
29.673346 45.321976 236.83994
25.596998 46.964886 227.7205
21.991558 48.41801 218.31879
18.87755 49.67307 208.6769
16.272306 50.723076 198.83818
14.189661 51.562454 188.8457
13.163373 51.976093 182.57616
11.950463 52.464935 172.43552
11.28091 52.73479 162.25633
11.1572895 52.78461 152.08447
11.5789175 52.61468 141.96239
12.542352 52.226383 131.9314
14.041469 51.62218 122.03291
16.067623 50.80557 112.30622
18.609844 49.780964 102.78939
21.6363 48.56119 93.57099
25.165386 47.138844 84.583
29.164263 45.527153 75.91094
33.613136 43.734093 67.58765
38.491302 41.768017 59.642464
43.77588 39.63814 52.103878
49.44282 37.354156 44.99799
55.466965 34.92621 38.348675
61.821953 32.36492 32.177837
68.44196 29.696817 26.536018
75.37473 26.902658 21.376371
82.55497 24.008764 16.747862
89.95355 21.026869 12.66408
97.54117 17.968784 9.136409
105.2884 14.846368 6.1742964
113.16534 11.671677 3.7853122
121.14155 8.456974 1.9752681
140.65686 0.4645303 316.12762
137.1362 1.5787091 316.83606
132.35657 3.0913184 317.21667
127.50511 4.626654 317.12643
121.92001 6.3941655 316.54602
115.837265 8.319168 315.41013
109.3718 10.365288 313.67838
102.63045 12.498718 311.3281
95.70822 14.68939 308.34958
88.68808 16.911049 304.74146
86.59137 17.574593 303.54684
79.45556 19.832855 299.06424
72.49591 22.035374 294.04025
65.66626 24.196745 288.43115
59.02524 26.298422 282.2621
52.625267 28.323818 275.56104
46.5132 30.258099 268.35815
41.75154 31.765018 262.10742
36.26428 33.501568 254.06783
31.183645 35.109432 245.63599
26.533932 36.58092 236.83994
22.343792 37.906975 227.7205
18.637688 39.07984 218.31879
15.436739 40.092842 208.6769
12.758777 40.94034 198.83818
10.617987 41.61783 188.8457
9.563028 41.95169 182.57616
8.316278 42.34625 172.43552
7.6280236 42.56406 162.25633
7.5009613 42.604275 152.08447
7.9343467 42.467117 141.96239
8.924678 42.15371 131.9314
10.4656515 41.66604 122.03291
12.548372 41.006924 112.30622
15.161559 40.179928 102.78939
18.272512 39.195408 93.57099
21.900126 38.047382 84.583
26.01064 36.74653 75.91094
30.583725 35.29929 67.58765
35.59807 33.712402 59.642464
41.03018 31.993307 52.103878
46.85534 30.149822 44.99799
53.047657 28.190145 38.348675
59.580067 26.122839 32.177837
66.384895 23.96932 26.536018
73.511215 21.71406 21.376371
80.89191 19.378298 16.747862
88.49704 16.971508 12.66408
96.296486 14.503222 9.136409
104.26001 11.983013 6.1742964
112.35685 9.420611 3.7853122
120.55574 6.8259144 1.9752681
128.82867 4.2077847 0.74744225
140.62561 0.3508042 316.12762
164.68163 1.7317964 1.9752681
164.74802 9.951742E-13 1.9752681
156.07068 9.967187E-13 0.74744225
137.03 1.1922103 316.83606
132.14859 2.3345032 317.21667
127.19384 3.493959 317.12643
121.48983 4.828749 316.54602
115.27757 6.2824736 315.41013
108.67445 7.827663 313.67838
101.789566 9.438788 311.3281
94.719955 11.093142 308.34958
87.55035 12.770893 304.74146
85.409 13.271989 303.54684
78.12126 14.9773855 299.06424
71.01342 16.640684 294.04025
64.03836 18.272911 288.43115
57.255947 19.860056 282.2621
50.719715 21.389595 275.56104
44.47751 22.850325 268.35815
39.614468 23.988321 262.10742
34.010372 25.299732 254.06783
28.821566 26.513958 245.63599
24.072855 27.625198 236.83994
19.793503 28.626608 227.7205
16.008495 29.512333 218.31879
12.73939 30.27733 208.6769
10.004401 30.917343 198.83818
7.818043 31.428974 188.8457
6.7406297 31.681099 182.57616
5.467325 31.979061 172.43552
4.764408 32.143547 162.25633
4.6346483 32.173916 152.08447
5.0772724 32.07034 141.96239
6.088689 31.833656 131.9314
7.6624603 31.465378 122.03291
9.789526 30.967627 112.30622
12.458354 30.343096 102.78939
15.635535 29.599607 93.57099
19.34039 28.73264 84.583
23.538425 27.750261 75.91094
28.208874 26.657333 67.58765
33.329987 25.458948 59.642464
38.877747 24.16072 52.103878
44.82693 22.768559 44.99799
51.151096 21.288647 38.348675
57.822586 19.727457 32.177837
64.77229 18.101164 26.536018
72.05034 16.398035 21.376371
79.58818 14.634112 16.747862
87.35524 12.816551 12.66408
95.32074 10.952551 9.136409
103.45382 9.049337 6.1742964
111.72306 7.1142616 3.7853122
120.09651 5.1547976 1.9752681
128.5456 3.177637 0.74744225
137.04305 1.1891544 0.10442734
156.02975 1.0675532 0.74744225
147.20638 1.1891544 0.10442734
155.90724 2.1288416 0.74744225
147.34366 9.982719E-13 0.10442734
147.10043 1.5746624 0.10442734
155.70383 3.177637 0.74744225
164.48288 3.45343 1.9752681
173.25606 2.3900943 3.7853122
173.34767 9.936436E-13 3.7853122
146.9653 1.9509298 0.10442734
155.42075 4.2077847 0.74744225
164.15291 5.1547976 1.9752681
172.98175 4.766163 3.7853122
181.72377 3.0401993 6.1742964
181.8403 9.921322E-13 6.1742964
146.80174 2.3157482 0.10442734
155.05963 5.2132397 0.74744225
163.69368 6.8259144 1.9752681
172.52637 7.1142616 3.7853122
181.37486 6.062557 6.1742964
190.05206 3.679599 9.136409
190.1931 9.906455E-13 9.136409
146.61076 2.666977 0.10442734
154.6226 6.1881013 0.74744225
163.10788 8.456974 1.9752681
171.89258 9.420611 3.7853122
180.79561 9.049337 6.1742964
189.62976 7.337605 9.136409
198.20876 4.3058257 12.66408
198.3738 9.891894E-13 12.66408
146.39343 3.002555 0.10442734
154.11224 7.1266484 0.74744225
162.39893 10.038405 1.9752681
171.08409 11.671677 3.7853122
179.98941 11.983013 6.1742964
188.92868 10.952551 9.136409
197.71458 8.586383 12.66408
206.16223 4.91645 16.747862
206.35068 9.877698E-13 16.747862
146.15108 3.3205125 0.10442734
153.53152 8.023374 0.74744225
161.57101 11.560927 1.9752681
170.10565 13.854247 3.7853122
178.96103 14.846368 6.1742964
187.95294 14.503222 9.136409
196.89418 12.816551 12.66408
205.59798 9.804049 16.747862
213.881 5.509054 21.376371
214.09216 9.863918E-13 21.376371
145.88507 3.6189842 0.10442734
152.88388 8.873014 0.74744225
160.62897 13.015605 1.9752681
168.96303 15.955517 3.7853122
177.71646 17.622597 6.1742964
186.70827 17.968784 9.136409
195.75238 16.971508 12.66408
204.66124 14.634112 16.747862
213.24873 10.985779 21.376371
221.33372 6.081234 26.536018
221.56682 9.850615E-13 26.536018
145.59702 3.8962183 0.10442734
152.17308 9.670586 0.74744225
159.57834 14.393902 1.9752681
167.66289 17.963152 3.7853122
176.26303 20.295412 6.1742964
185.20195 21.328897 9.136409
194.29588 21.026869 12.66408
203.35751 19.378298 16.747862
212.19908 16.398035 21.376371
220.63579 12.126781 26.536018
228.45024 6.627601 32.177837
228.70428 9.837912E-13 32.177837
145.28857 4.1505876 0.10442734
151.40332 10.411405 0.74744225
158.4253 15.687728 1.9752681
166.21289 19.865374 3.7853122
174.60927 22.849123 6.1742964
183.44284 24.563845 9.136409
192.5332 24.958834 12.66408
201.69446 24.008764 16.747862
210.7382 21.71406 21.376371
219.47713 18.101164 26.536018
227.6896 13.21631 32.177837
235.28186 7.1520953 38.348675
235.556 9.825718E-13 38.348675
144.96156 4.3805995 0.10442734
150.57912 11.091126 0.74744225
157.17657 16.889496 1.9752681
164.62154 21.651016 3.7853122
172.76486 25.268747 6.1742964
181.44125 27.65464 9.136409
190.47472 28.744333 12.66408
199.68181 28.498337 16.747862
208.8747 26.902658 21.376371
217.86453 23.96932 26.536018
226.42683 19.727457 32.177837
234.46103 14.262219 38.348675
241.75781 7.649284 44.99799
242.05101 9.814158E-13 44.99799
144.6179 4.5849047 0.10442734
149.70529 11.705761 0.74744225
155.83952 17.992146 1.9752681
162.89815 23.309603 3.7853122
170.74066 27.540085 6.1742964
179.20895 30.583149 9.136409
188.13249 32.36115 12.66408
197.3314 32.820667 16.747862
206.61946 31.933382 21.376371
215.80746 29.696817 26.536018
224.66936 26.122839 32.177837
233.09833 21.288647 38.348675
240.87993 15.253679 44.99799
247.84978 8.116992 52.103878
248.16092 9.803283E-13 52.103878
144.25961 4.7623034 0.10442734
148.78697 12.251701 0.74744225
154.422 18.989212 1.9752681
161.05287 24.8314 3.7853122
168.54852 29.649805 6.1742964
176.75902 33.332184 9.136409
185.52028 35.788055 12.66408
194.65701 36.950397 16.747862
203.98573 36.776707 21.376371
213.318 35.25004 26.536018
222.42747 32.36492 32.177837
231.20177 28.190145 38.348675
239.42249 22.768559 44.99799
246.91821 16.186352 52.103878
253.5307 8.553142 59.642464
253.85855 9.793143E-13 59.642464
143.88881 4.9117556 0.10442734
147.82957 12.725743 0.74744225
152.93231 19.874844 1.9752681
159.0965 26.207476 3.7853122
166.20131 31.58553 6.1742964
174.10585 35.88561 9.136409
182.6534 39.004944 12.66408
191.67435 40.863285 16.747862
200.989 41.404213 21.376371
210.41074 40.5964 26.536018
219.71434 38.417072 32.177837
228.78246 34.92621 38.348675
237.39409 30.149822 44.99799
245.37167 24.16072 52.103878
252.54909 17.056091 59.642464
258.77472 8.9557495 67.58765
259.118 9.783782E-13 67.58765
143.50763 5.0323834 0.10442734
146.83868 13.125106 0.74744225
151.3792 20.643839 1.9752681
157.04054 27.429754 3.7853122
163.71281 33.3359 6.1742964
171.26498 38.228447 9.136409
179.54868 41.992935 12.66408
188.40091 44.536373 16.747862
197.64682 45.788742 21.376371
207.10275 45.70453 26.536018
216.54588 44.243774 32.177837
225.85461 41.457317 38.348675
234.80661 37.354156 44.99799
243.21924 31.993307 52.103878
250.91943 25.458948 59.642464
257.7469 17.858942 67.58765
263.55728 9.322927 75.91094
263.91464 9.775245E-13 75.91094
143.11835 5.123479 0.10442734
145.82013 13.447445 0.74744225
149.77177 21.29169 1.9752681
154.89705 28.491064 3.7853122
161.09764 34.890636 6.1742964
168.25313 40.346943 9.136409
176.22433 44.734497 12.66408
184.8559 47.948105 16.747862
193.9788 49.904568 21.376371
203.41344 50.54444 26.536018
212.94069 49.81084 32.177837
222.43541 47.745136 38.348675
231.67522 44.339283 44.99799
240.47354 39.63814 52.103878
248.65135 33.712402 59.642464
256.04056 26.657333 67.58765
262.4873 18.591145 75.91094
267.85608 9.652966 84.583
268.22607 9.767571E-13 84.583
142.72324 5.184508 0.10442734
144.7799 13.690869 0.74744225
148.11946 21.814592 1.9752681
152.6786 29.38518 3.7853122
158.37112 36.240627 6.1742964
165.08794 42.22867 9.136409
172.69989 47.213535 12.66408
181.06013 51.078453 16.747862
190.0065 53.727528 21.376371
199.36447 55.08774 26.536018
208.9199 55.085594 32.177837
218.5449 53.752766 38.348675
228.01833 51.06421 44.99799
237.15071 47.050365 52.103878
245.75812 41.768017 59.642464
253.6657 35.29929 67.58765
260.711 27.750261 75.91094
266.74823 19.249285 84.583
271.64984 9.94423 93.57099
272.031 9.760799E-13 93.57099
142.32462 5.2151127 0.10442734
143.72409 13.8539505 0.74744225
146.43199 22.209478 1.9752681
150.39822 30.10685 3.7853122
155.54926 37.377937 6.1742964
161.78798 43.86258 9.136409
168.99602 49.41551 12.66408
177.03586 53.909058 16.747862
185.7532 57.235195 21.376371
194.97958 59.307762 26.536018
204.50716 60.037083 32.177837
214.20595 59.444954 38.348675
223.85738 57.489468 44.99799
233.2702 54.186478 52.103878
242.25673 49.57852 59.642464
250.63629 43.734093 67.58765
258.2388 36.74653 75.91094
264.90903 28.73264 84.583
270.50858 19.830105 93.57099
274.9033 10.194012 102.78939
275.29404 9.754992E-13 102.78939
141.92482 5.2151127 0.10442734
142.65887 13.935731 0.74744225
144.71922 22.47403 1.9752681
148.06929 30.651842 3.7853122
152.6486 38.295902 6.1742964
158.37263 45.239086 9.136409
165.13445 51.32749 12.66408
172.80673 56.423298 16.747862
181.24388 60.406982 21.376371
190.28455 63.179737 26.536018
199.72832 64.63625 32.177837
209.44397 64.78829 38.348675
219.21677 63.577354 44.99799
228.85483 61.004604 52.103878
238.16772 57.09808 59.642464
246.97008 51.912247 67.58765
255.08516 45.527153 75.91094
262.3493 38.047382 84.583
268.6139 29.599607 93.57099
273.73334 20.328201 102.78939
277.63617 10.403828 112.30622
278.03494 9.750113E-13 112.30622
141.52618 5.184508 0.10442734
141.59055 13.935731 0.74744225
142.99124 22.606695 1.9752681
145.70547 31.016954 3.7853122
149.6862 38.989132 6.1742964
154.86195 46.35011 9.136409
161.13785 52.938267 12.66408
168.39754 58.606426 16.747862
176.50499 63.224277 21.376371
185.30687 66.68096 26.536018
194.61145 68.85611 32.177837
204.28696 69.75143 38.348675
214.12376 69.292145 44.99799
223.9305 67.46473 52.103878
233.5151 64.28257 59.642464
242.6886 59.785763 67.58765
251.26865 54.040604 75.91094
259.08405 47.138844 84.583
265.9769 39.195408 93.57099
271.79108 30.343096 102.78939
276.44217 20.746601 112.30622
279.8143 10.571052 122.03291
280.21948 9.746225E-13 122.03291
141.13107 5.123479 0.10442734
140.52534 13.8539505 0.74744225
141.25818 22.606695 1.9752681
143.32063 31.20005 3.7853122
146.67943 39.453556 6.1742964
151.2765 47.18914 9.136409
157.02968 54.238377 12.66408
163.83417 60.445633 16.747862
171.56433 65.67055 21.376371
180.07579 69.79086 26.536018
189.18655 72.6719 32.177837
198.76514 74.30524 38.348675
208.60825 74.6003 44.99799
218.5261 73.528946 52.103878
228.32616 71.08981 59.642464
237.81697 67.308426 67.58765
246.81163 62.236923 75.91094
255.13242 55.95368 84.583
262.61313 48.56119 93.57099
269.08786 40.179928 102.78939
274.4599 30.967627 112.30622
278.60107 21.080067 122.03291
281.42584 10.6947775 131.9314
281.8358 9.743349E-13 131.9314
140.74179 5.0323834 0.10442734
139.46953 13.690869 0.74744225
139.5302 22.47403 1.9752681
140.92879 31.20005 3.7853122
143.64594 39.68645 6.1742964
147.63736 47.751236 9.136409
152.83405 55.220196 12.66408
159.1434 61.930115 16.747862
166.45093 67.73144 21.376371
174.622 72.49121 26.536018
183.48549 76.06121 32.177837
192.91093 78.423 38.348675
202.70258 79.47068 44.99799
212.67332 79.16167 52.103878
222.63136 77.47987 59.642464
232.38377 74.436104 67.58765
241.74026 70.068016 75.91094
250.51761 64.440155 84.583
258.54227 57.642002 93.57099
265.6396 49.780964 102.78939
271.70105 41.006924 112.30622
276.58698 31.465378 122.03291
280.19843 21.326796 131.9314
282.46155 10.774293 141.96239
282.8745 9.7415E-13 141.96239
140.36063 4.9117556 0.10442734
138.42929 13.447445 0.74744225
137.81744 22.209478 1.9752681
138.54396 31.016954 3.7853122
140.6035 39.68645 6.1742964
143.96587 48.033115 9.136409
148.57555 55.877956 12.66408
154.35277 63.05117 16.747862
161.19475 69.39486 21.376371
168.9775 74.76615 26.536018
177.5417 79.004166 32.177837
186.75868 82.080536 38.348675
196.4414 83.87468 44.99799
206.40656 84.329834 52.103878
216.46411 83.41526 59.642464
226.42091 81.12696 67.58765
236.08432 77.487915 75.91094
245.26672 72.54847 84.583
253.78822 66.384544 93.57099
261.46646 59.08987 102.78939
268.1818 50.80557 112.30622
273.78378 41.66604 122.03291
278.16074 31.833656 131.9314
281.225 21.48536 141.96239
282.9148 10.809091 152.08447
283.3291 9.74069E-13 152.08447
139.9898 4.7623034 0.10442734
137.41074 13.125106 0.74744225
136.12996 21.814592 1.9752681
136.18015 30.651842 3.7853122
137.56999 39.453556 6.1742964
140.28357 48.033115 9.136409
144.2792 56.20781 12.66408
149.49037 63.80221 16.747862
155.82668 70.65104 21.376371
163.1754 76.60233 26.536018
171.39006 81.4835 32.177837
180.34453 85.25639 38.348675
189.86148 87.78648 44.99799
199.76254 89.00312 52.103878
209.86061 88.86113 59.642464
219.96336 87.34173 67.58765
229.87698 84.453094 75.91094
239.41055 80.23104 84.583
248.37889 74.73752 93.57099
256.59302 68.05201 102.78939
263.9228 60.306072 112.30622
270.20795 51.62218 122.03291
275.32474 42.15371 131.9314
279.17215 32.07034 141.96239
281.67426 21.554749 152.08447
282.7819 10.798888 162.25633
283.19583 9.740928E-13 162.25633
139.63152 4.5849047 0.10442734
136.41986 12.725743 0.74744225
134.47766 21.29169 1.9752681
133.85121 30.10685 3.7853122
134.56322 38.989132 6.1742964
136.61206 47.751236 9.136409
139.97021 56.20781 12.66408
144.58475 64.17884 16.747862
150.37819 71.492615 21.376371
157.24979 77.98898 26.536018
165.0667 83.48465 32.177837
173.70607 87.93193 38.348675
183.00143 91.18311 44.99799
192.7803 93.154106 52.103878
202.8596 93.78552 59.642464
213.04903 93.04394 67.58765
223.15468 90.92266 75.91094
232.98347 87.44279 84.583
242.34602 82.65191 93.57099
251.0478 76.6148 102.78939
258.94904 69.452675 112.30622
265.8805 61.27539 122.03291
271.70706 52.226383 131.9314
276.31506 42.467117 141.96239
279.61478 32.173916 152.08447
281.54254 21.534405 162.25633
282.0621 10.7436285 172.43552
282.47394 9.742212E-13 172.43552
139.28787 4.3805995 0.10442734
135.46245 12.251701 0.74744225
132.87024 20.643839 1.9752681
131.57083 29.38518 3.7853122
131.60081 38.295902 6.1742964
132.97292 47.18914 9.136409
135.67387 55.877956 12.66408
139.66469 64.17884 16.747862
144.88126 71.914635 21.376371
151.23541 78.91796 26.536018
158.60869 84.99588 32.177837
166.88228 90.091446 38.348675
175.90149 94.04465 44.99799
185.5008 96.758415 52.103878
195.50218 98.15955 59.642464
205.71848 98.20013 67.58765
215.95686 96.85866 75.91094
226.0232 94.14139 84.583
235.725 90.08125 93.57099
244.8634 84.727974 102.78939
253.28969 78.191696 112.30622
260.82678 70.56901 122.03291
267.32895 61.99257 131.9314
272.6705 52.61468 141.96239
276.74847 42.604275 152.08447
279.48502 32.143547 162.25633
280.8291 21.424208 172.43552
280.75824 10.643524 182.57616
281.16623 9.74454E-13 182.57616
138.96086 4.1505876 0.10442734
134.54414 11.705761 0.74744225
131.31711 19.874844 1.9752681
129.35237 28.491064 3.7853122
128.70016 37.377937 6.1742964
129.38748 46.35011 9.136409
131.41539 55.220196 12.66408
134.75906 63.80221 16.747862
139.36816 71.914635 21.376371
145.16756 79.38381 26.536018
152.05396 86.00832 32.177837
159.9132 91.722275 38.348675
168.60333 96.35429 44.99799
177.96674 99.794914 52.103878
187.83153 101.957535 59.642464
198.01472 102.780045 67.58765
208.32576 102.22625 75.91094
218.57057 100.28752 84.583
228.55472 96.981964 93.57099
238.07608 92.34393 102.78939
246.978 86.47187 112.30622
255.07648 79.4485 122.03291
262.2161 71.394966 131.9314
268.25983 62.453484 141.96239
273.09213 52.78461 152.08447
276.6214 42.56406 162.25633
278.7821 31.979061 172.43552
279.5367 21.224588 182.57616
279.65497 10.558822 188.8457
280.05972 9.746509E-13 188.8457
138.65242 3.8962183 0.10442734
133.67032 11.091126 0.74744225
129.82742 18.989212 1.9752681
127.208885 27.429754 3.7853122
125.87831 36.240627 6.1742964
125.876785 45.239086 9.136409
127.21975 54.238377 12.66408
129.89665 63.05117 16.747862
133.87125 71.492615 21.376371
139.08186 79.38381 26.536018
145.44095 86.51603 32.177837
152.83974 92.81484 38.348675
161.1498 98.09848 44.99799
170.22235 102.24578 52.103878
179.89264 105.157196 59.642464
189.983 106.756805 67.58765
200.30617 106.993935 75.91094
210.66933 105.84513 84.583
220.87721 103.31356 93.57099
230.72568 99.417984 102.78939
240.05098 94.24458 112.30622
248.66333 87.861755 122.03291
256.3985 80.37838 131.9314
263.10898 71.92578 141.96239
268.66724 62.65519 152.08447
272.9685 52.73479 162.25633
275.93314 42.34625 172.43552
277.5088 31.681099 182.57616
278.44318 21.055677 188.8457
277.41614 10.386934 198.83818
277.81427 9.750506E-13 198.83818
138.36435 3.6189842 0.10442734
132.8461 10.411405 0.74744225
128.4099 17.992146 1.9752681
125.15292 26.207476 3.7853122
123.15179 34.890636 6.1742964
122.46144 43.86258 9.136409
123.11157 52.938267 12.66408
125.10602 61.930115 16.747862
128.42274 70.65104 21.376371
133.01402 78.91796 26.536018
138.80847 86.51603 32.177837
145.70338 93.362724 38.348675
153.58461 99.267 44.99799
162.31306 104.09662 52.103878
171.73212 107.739746 59.642464
181.67043 110.10708 67.58765
191.94514 111.13374 75.91094
202.36583 110.78159 84.583
212.73756 109.03886 93.57099
222.85533 105.90861 102.78939
232.5493 101.46423 112.30622
241.62498 95.75941 122.03291
249.9103 88.890114 131.9314
257.2481 80.976 141.96239
263.49973 72.15808 152.08447
268.5478 62.596054 162.25633
272.29895 52.464935 172.43552
274.6864 41.95169 182.57616
276.4314 31.428974 188.8457
276.22406 20.712914 198.83818
274.6155 10.171917 208.6769
275.0054 9.755505E-13 208.6769
138.09836 3.3205125 0.10442734
132.07634 9.670586 0.74744225
127.07285 16.889496 1.9752681
123.196556 24.8314 3.7853122
120.536606 33.3359 6.1742964
119.16149 42.22867 9.136409
119.114975 51.32749 12.66408
120.41525 60.445633 16.747862
123.05467 69.39486 21.376371
126.99964 77.98898 26.536018
132.19547 86.00832 32.177837
138.54604 93.362724 38.348675
145.95216 99.852974 44.99799
154.28531 105.336586 52.103878
163.39784 109.69004 59.642464
173.12578 112.8112 67.58765
183.29176 114.62137 75.91094
193.70883 115.06796 84.583
204.18353 114.124275 93.57099
214.51123 111.777725 102.78939
224.51695 108.08845 112.30622
234.00272 103.0951 122.03291
242.78955 96.880196 131.9314
250.71167 89.551 141.96239
257.61993 81.23752 152.08447
263.38516 72.08998 162.25633
267.90085 62.275734 172.43552
271.08606 51.976093 182.57616
273.63144 41.61783 188.8457
274.24503 30.917343 198.83818
273.4481 20.284142 208.6769
271.26794 9.914909 218.31879
271.64798 9.761481E-13 218.31879
137.85599 3.002555 0.10442734
131.36555 8.873014 0.74744225
125.824135 15.687728 1.9752681
121.35127 23.309603 3.7853122
118.04811 31.58553 6.1742964
115.99629 40.346943 9.136409
115.25341 49.41551 12.66408
115.85188 58.606426 16.747862
117.7985 67.73144 21.376371
121.07402 76.60233 26.536018
125.64073 84.99588 32.177837
131.4097 92.81484 38.348675
138.29726 99.852974 44.99799
146.18619 105.95839 52.103878
154.93874 110.996635 59.642464
164.3992 114.853294 67.58765
174.39679 117.436356 75.91094
184.7491 118.67905 84.583
195.2653 118.53997 93.57099
205.74234 116.99088 102.78939
216.00111 114.07836 112.30622
225.84128 109.82579 122.03291
235.07808 104.30175 131.9314
243.538 97.60049 141.96239
251.06238 89.840225 152.08447
257.51093 81.16084 162.25633
262.76462 71.72107 172.43552
266.72894 61.69548 182.57616
270.05975 51.562454 188.8457
271.49066 40.94034 198.83818
271.51004 30.27733 208.6769
270.13004 19.771635 218.31879
267.3921 9.617344 227.7205
267.7607 9.768399E-13 227.7205
137.63867 2.666977 0.10442734
130.7179 8.023374 0.74744225
124.67108 14.393902 1.9752681
119.62789 21.651016 3.7853122
115.700905 29.649805 6.1742964
112.984436 38.228447 9.136409
111.54954 47.213535 12.66408
111.442696 56.423298 16.747862
112.68509 65.67055 21.376371
115.27194 74.76615 26.536018
119.18273 83.48465 32.177837
124.33623 91.722275 38.348675
130.66483 99.267 44.99799
138.06323 105.95839 52.103878
146.40442 111.651855 59.642464
155.5419 116.22139 67.58765
165.31242 119.56218 75.91094
175.53925 121.59368 84.583
186.03523 122.260025 93.57099
196.60011 121.51749 102.78939
207.05173 119.39882 112.30622
217.18855 115.91197 122.03291
226.8211 111.11121 131.9314
235.76918 105.077225 141.96239
243.86552 97.91572 152.08447
250.95955 89.75543 162.25633
256.92047 80.74553 172.43552
261.64056 71.05281 182.57616
265.7373 61.204494 188.8457
267.9771 50.723076 198.83818
268.81268 40.092842 208.6769
268.24094 29.512333 218.31879
266.28833 19.178247 227.7205
263.01 9.280911 236.83994
263.36575 9.776222E-13 236.83994
137.44768 2.3157482 0.10442734
130.13719 7.1266484 0.74744225
123.62045 13.015605 1.9752681
118.03654 19.865374 3.7853122
113.508766 27.540085 6.1742964
110.14358 35.88561 9.136409
108.025085 44.734497 12.66408
107.21356 53.909058 16.747862
107.74444 63.224277 21.376371
109.62743 72.49121 26.536018
112.85936 81.4835 32.177837
117.36715 90.091446 38.348675
123.09963 98.09848 44.99799
129.96411 105.336586 52.103878
137.845 111.651855 59.642464
146.60588 116.90745 67.58765
156.092 120.98637 75.91094
166.13329 123.79476 84.583
176.54749 125.2626 93.57099
187.13818 125.330986 102.78939
197.72133 124.01859 112.30622
208.09532 121.317955 122.03291
218.06712 117.26864 131.9314
227.45082 111.937325 141.96239
236.07162 105.416595 152.08447
243.7695 97.8233 162.25633
250.40262 89.296135 172.43552
255.85085 79.99318 182.57616
260.68945 70.48736 188.8457
263.72504 60.20815 198.83818
265.3719 49.67307 208.6769
265.61172 39.07984 218.31879
264.45593 28.626608 227.7205
261.94485 18.50736 236.83994
258.14734 8.907581 245.63599
258.48877 9.784902E-13 245.63599
137.28413 1.9509298 0.10442734
129.62682 6.1881013 0.74744225
122.67841 11.560927 1.9752681
116.58653 17.963152 3.7853122
111.48456 25.268747 6.1742964
107.4904 33.332184 9.136409
104.70075 41.992935 12.66408
103.1893 51.078453 16.747862
103.00555 60.406982 21.376371
104.173645 69.79086 26.536018
106.707726 79.004166 32.177837
110.54336 87.93193 38.348675
115.64609 96.35429 44.99799
121.93636 104.09662 52.103878
129.3107 110.996635 59.642464
137.64355 116.90745 67.58765
146.7896 121.70055 75.91094
156.58646 125.26937 84.583
166.85771 127.5301 93.57099
177.41212 128.40898 102.78939
188.06467 127.91057 112.30622
198.61494 126.011986 122.03291
208.86746 122.737885 131.9314
218.63174 118.140526 141.96239
227.7264 112.29884 152.08447
235.98296 105.31709 162.25633
243.24936 97.32271 172.43552
249.39374 88.46411 182.57616
254.94579 79.356575 188.8457
258.75934 69.339905 198.83818
261.2078 58.961796 208.6769
262.25787 48.41801 218.31879
261.90564 37.906975 227.7205
260.17657 27.625198 236.83994
257.12503 17.76289 245.63599
252.83398 8.499652 254.06783
253.15979 9.794386E-13 254.06783
137.14899 1.5746624 0.10442734
129.18979 5.2132397 0.74744225
121.850494 10.038405 1.9752681
115.28641 15.955517 3.7853122
109.64016 22.849123 6.1742964
105.040474 30.583149 9.136409
101.59603 39.004944 12.66408
99.393524 47.948105 16.747862
98.496216 57.235195 21.376371
98.94256 66.68096 26.536018
100.76394 76.06121 32.177837
103.9049 85.25639 38.348675
108.34793 94.04465 44.99799
114.027084 102.24578 52.103878
120.851585 109.69004 59.642464
128.70752 116.22139 67.58765
137.45982 121.70055 75.91094
146.95474 126.008835 84.583
157.02281 129.0492 93.57099
167.47897 130.73343 102.78939
178.13841 131.05193 112.30622
188.80307 129.96652 122.03291
199.27612 127.486855 131.9314
209.36368 123.65043 141.96239
218.87883 118.52209 152.08447
227.6456 112.192856 162.25633
235.50266 104.77816 172.43552
242.30713 96.41591 182.57616
248.54007 87.7601 188.8457
253.10919 78.06474 198.83818
256.3449 67.90451 208.6769
258.199 57.472046 218.31879
258.65244 46.964886 227.7205
257.71548 36.58092 236.83994
255.42786 26.513958 245.63599
251.8585 16.949425 254.06783
247.09538 8.059073 262.10742
247.4043 9.80463E-13 262.10742
136.96693 0.7966678 0.10442734
128.3422 2.1288416 0.74744225
119.766556 3.45343 1.9752681
111.26767 4.766163 3.7853122
102.874565 6.062557 6.1742964
94.61967 7.337605 9.136409
86.53484 8.586383 12.66408
78.65144 9.804049 16.747862
71.000694 10.985779 21.376371
63.613632 12.126781 26.536018
56.559822 13.21631 32.177837
49.7884 14.262219 38.348675
43.369503 15.253679 44.99799
37.331207 16.186352 52.103878
31.700342 17.056091 59.642464
26.502527 17.858942 67.58765
21.762117 18.591145 75.91094
17.501198 19.249285 84.583
13.740852 19.830105 93.57099
10.516077 20.328201 102.78939
7.8072696 20.746601 112.30622
5.648345 21.080067 122.03291
4.0509996 21.326796 131.9314
3.024429 21.48536 141.96239
2.5751739 21.554749 152.08447
2.7068853 21.534405 162.25633
3.4203231 21.424208 172.43552
4.712701 21.224588 182.57616
5.8062525 21.055677 188.8457
8.025378 20.712914 198.83818
10.801331 20.284142 208.6769
14.119402 19.771635 218.31879
17.9611 19.178247 227.7205
22.304558 18.50736 236.83994
27.124397 17.76289 245.63599
32.390923 16.949425 254.06783
38.078964 16.070852 262.10742
43.014854 15.308458 268.35815
49.35055 14.329849 275.56104
55.9847 13.305142 282.2621
62.868706 12.241842 288.43115
69.94824 11.14834 294.04025
77.16255 10.034022 299.06424
84.55945 8.8915 303.54684
86.73288 8.555794 304.74146
94.00987 7.4317927 308.34958
101.18538 6.3234677 311.3281
108.1734 5.2441025 313.67838
114.87543 4.208911 315.41013
121.18074 3.2349956 316.54602
126.97019 2.3407598 317.12643
131.99916 1.5639886 317.21667
136.95367 0.7987152 316.83606
140.60315 0.23501948 316.12762
140.58963 0.11785555 316.12762
136.90771 0.4005328 316.83606
131.90915 0.7842955 317.21667
126.83547 1.1738241 317.12643
120.99455 1.6222578 316.54602
114.633194 2.1106484 315.41013
107.87158 2.6297674 313.67838
100.82145 3.1710384 311.3281
93.58215 3.7268317 308.34958
86.24047 4.2904863 304.74146
84.04772 4.4588337 303.54684
76.58506 5.031775 299.06424
69.306625 5.590574 294.04025
62.16415 6.1389337 288.43115
55.21895 6.6721487 282.2621
48.525833 7.1860094 275.56104
42.13381 7.676754 268.35815
37.15404 8.059073 262.10742
31.41544 8.499652 254.06783
26.102097 8.907581 245.63599
21.239407 9.280911 236.83994
16.857342 9.617344 227.7205
12.981489 9.914909 218.31879
9.633928 10.171917 208.6769
6.8332853 10.386934 198.83818
4.594445 10.558822 188.8457
3.491178 10.643524 182.57616
2.1873116 10.7436285 172.43552
1.467526 10.798888 162.25633
1.3346374 10.809091 152.08447
1.787886 10.774293 141.96239
2.8235912 10.6947775 131.9314
4.435137 10.571052 122.03291
6.6132545 10.403828 112.30622
9.346143 10.194012 102.78939
12.599587 9.94423 93.57099
16.393349 9.652966 84.583
20.692148 9.322927 75.91094
25.474697 8.9557495 67.58765
30.718721 8.553142 59.642464
36.39964 8.116992 52.103878
42.491615 7.649284 44.99799
48.96757 7.1520953 38.348675
55.799187 6.627601 32.177837
62.915707 6.081234 26.536018
70.36843 5.509054 21.376371
78.0872 4.91645 16.747862
86.04067 4.3058257 12.66408
94.197365 3.679599 9.136409
102.52565 3.0401993 6.1742964
110.99336 2.3900943 3.7853122
119.567795 1.7317964 1.9752681
128.21967 1.0675532 0.74744225
136.92108 0.39950612 0.10442734
136.90578 9.627571E-13 0.10442734
128.17874 9.0181665E-13 0.74744225
119.50142 8.412232E-13 1.9752681
110.90175 7.811721E-13 3.7853122
102.40912 7.218684E-13 6.1742964
94.05632 6.635412E-13 9.136409
85.875626 6.0641574E-13 12.66408
77.89874 5.507135E-13 16.747862
70.157265 4.966551E-13 21.376371
62.682606 4.4445984E-13 26.536018
55.545143 3.9461926E-13 32.177837
48.693424 3.4677396E-13 38.348675
42.198414 3.014196E-13 44.99799
36.088512 2.5875444E-13 52.103878
30.390873 2.1896802E-13 59.642464
25.131413 1.8224147E-13 67.58765
20.334787 1.4874682E-13 75.91094
16.023338 1.186402E-13 84.583
12.218416 9.207047E-14 93.57099
8.955389 6.9284964E-14 102.78939
6.21447 5.0145198E-14 112.30622
4.0299444 3.489077E-14 122.03291
2.4136453 2.3604267E-14 131.9314
1.3749003 1.63507E-14 141.96239
0.9203255 1.31764445E-14 152.08447
1.0536015 1.4107122E-14 162.25633
1.7754883 1.9148027E-14 172.43552
3.0831993 2.8279677E-14 182.57616
4.189715 3.6006524E-14 188.8457
6.435156 5.168627E-14 198.83818
9.244024 7.130048E-14 208.6769
12.601435 9.474519E-14 218.31879
16.4887 1.2188974E-13 227.7205
20.883665 1.525796E-13 236.83994
25.760658 1.8663546E-13 245.63599
31.089642 2.2384751E-13 254.06783
36.84513 2.6403784E-13 262.10742
41.839554 2.989137E-13 268.35815
48.250393 3.4368027E-13 275.56104
54.9632 3.9055556E-13 282.2621
61.928844 4.3919631E-13 288.43115
69.09233 4.892187E-13 294.04025
76.39219 5.401933E-13 299.06424
83.87681 5.9245805E-13 303.54684
86.07601 6.07815E-13 304.74146
93.4393 6.5923254E-13 308.34958
100.699905 7.0993303E-13 311.3281
107.77078 7.593087E-13 313.67838
114.55229 8.0666366E-13 315.41013
120.93237 8.5121553E-13 316.54602
126.79048 8.921224E-13 317.12643
131.87907 9.27656E-13 317.21667
136.89236 9.626634E-13 316.83606
140.58511 9.884498E-13 316.12762
198.17342 1.3905868E-12 304.74146
190.81012 1.3391691E-12 308.34958
93.4393 6.592323E-13 308.34958
86.07601 6.0781474E-13 304.74146
83.87681 5.924578E-13 303.54684
114.55229 8.066635E-13 315.41013
107.77078 7.593085E-13 313.67838
100.699905 7.099328E-13 311.3281
41.839554 2.9891316E-13 268.35815
36.84513 2.6403733E-13 262.10742
275.0054 1.9271017E-12 208.6769
271.64798 1.903657E-12 218.31879
183.54953 1.2884687E-12 311.3281
176.47864 1.2390929E-12 313.67838
169.69713 1.1917379E-12 315.41013
277.81427 1.946716E-12 198.83818
242.40987 1.6994883E-12 268.35815
235.99904 1.6547216E-12 275.56104
20.883665 1.5257901E-13 236.83994
16.4887 1.218891E-13 227.7205
283.19583 1.984295E-12 162.25633
282.47394 1.979254E-12 172.43552
147.34366 1.0356444E-12 0.10442734
281.16623 1.9701224E-12 182.57616
280.05972 1.9623957E-12 188.8457
131.87907 9.276558E-13 317.21667
126.79048 8.9212237E-13 317.12643
120.93237 8.512154E-13 316.54602
61.928844 4.3919596E-13 288.43115
54.9632 3.9055513E-13 282.2621
48.250393 3.436798E-13 275.56104
12.601435 9.474455E-14 218.31879
9.244024 7.1299845E-14 208.6769
6.435156 5.1685527E-14 198.83818
4.189715 3.600578E-14 188.8457
3.0831993 2.8279042E-14 182.57616
136.90578 9.62757E-13 0.10442734
1.7754883 1.9147392E-14 172.43552
1.0536015 1.4106381E-14 162.25633
267.7607 1.8765124E-12 227.7205
263.36575 1.8458225E-12 236.83994
258.48877 1.8117666E-12 245.63599
163.31705 1.1471861E-12 316.54602
157.45894 1.1062791E-12 317.12643
152.37035 1.0707456E-12 317.21667
281.8358 1.974798E-12 131.9314
282.8745 1.9820515E-12 141.96239
283.3291 1.9852258E-12 152.08447
253.15979 1.7745545E-12 254.06783
247.4043 1.7343642E-12 262.10742
229.28622 1.6078463E-12 282.2621
222.32057 1.5592055E-12 288.43115
215.15709 1.5091831E-12 294.04025
31.089642 2.2384693E-13 254.06783
25.760658 1.8663487E-13 245.63599
207.85724 1.4582084E-12 299.06424
200.37262 1.4059437E-12 303.54684
147.35707 1.035738E-12 316.83606
143.66432 1.0099517E-12 316.12762
76.39219 5.40193E-13 299.06424
69.09233 4.8921837E-13 294.04025
0.9203255 1.3175703E-14 152.08447
1.3749003 1.6350065E-14 141.96239
2.4136453 2.3603525E-14 131.9314
275.29404 1.929117E-12 102.78939
278.03494 1.9482569E-12 112.30622
280.21948 1.9635114E-12 122.03291
4.0299444 3.489003E-14 122.03291
6.21447 5.014456E-14 112.30622
8.955389 6.928433E-14 102.78939
263.91464 1.8496552E-12 75.91094
268.22607 1.879762E-12 84.583
272.031 1.9063316E-12 93.57099
12.218416 9.206983E-14 93.57099
16.023338 1.1863957E-13 84.583
20.334787 1.4874624E-13 75.91094
248.16092 1.7396476E-12 52.103878
253.85855 1.7794339E-12 59.642464
259.118 1.8161606E-12 67.58765
25.131413 1.8224089E-13 67.58765
30.390873 2.1896749E-13 59.642464
36.088512 2.587539E-13 52.103878
228.70428 1.6037826E-12 32.177837
235.556 1.6516279E-12 38.348675
242.05101 1.6969824E-12 44.99799
42.198414 3.0141905E-13 44.99799
48.693424 3.467735E-13 38.348675
55.545143 3.9461883E-13 32.177837
206.35068 1.4476882E-12 16.747862
214.09216 1.5017466E-12 21.376371
221.56682 1.553942E-12 26.536018
62.682606 4.4445946E-13 26.536018
70.157265 4.9665475E-13 21.376371
77.89874 5.507132E-13 16.747862
181.8403 1.2765332E-12 6.1742964
190.1931 1.3348605E-12 9.136409
198.3738 1.391986E-12 12.66408
85.875626 6.0641547E-13 12.66408
94.05632 6.6354095E-13 9.136409
102.40912 7.218682E-13 6.1742964
156.07068 1.0965848E-12 0.74744225
164.74802 1.1571784E-12 1.9752681
173.34767 1.2172294E-12 3.7853122
110.90175 7.8117195E-13 3.7853122
119.50142 8.412231E-13 1.9752681
128.17874 9.0181654E-13 0.74744225
142.80014 0.11909659 316.00385
142.80795 0.059775762 316.00385
143.17776 0.09212979 371.31757
143.16573 0.1835584 371.31757
142.12471 9.992007E-13 371.36154
143.18178 9.994233E-13 371.31757
144.23016 9.996442E-13 371.1866
144.22215 0.18350165 371.1866
145.26959 9.998631E-13 370.96924
145.25763 0.27409428 370.96924
146.29346 1.0000787E-12 370.66714
146.2776 0.3633303 370.66714
147.30136 1.0002909E-12 370.28067
147.28166 0.4511753 370.28067
148.29037 1.0004993E-12 369.81046
148.2669 0.5373723 369.81046
149.25757 1.0007029E-12 369.25696
149.23042 0.62166905 369.25696
150.20001 1.0009014E-12 368.6207
150.16928 0.7038084 368.6207
150.40956 1.0009455E-12 368.46524
150.37804 0.7220721 368.46524
151.32832 1.0011391E-12 367.71848
151.29329 0.802147 367.71848
152.20335 1.0013233E-12 366.89896
152.16501 0.87841153 366.89896
153.04291 1.0015001E-12 365.99847
153.00136 0.95158356 365.99847
153.84308 1.0016686E-12 365.01822
153.7985 1.0213228 365.01822
154.60005 1.0018281E-12 363.95935
154.55258 1.0872977 363.95935
155.30984 1.0019776E-12 362.82358
155.25967 1.1491601 362.82358
144.19817 0.36560676 371.1866
145.22182 0.5461026 370.96924
146.23013 0.72389543 370.66714
147.22272 0.89891684 370.28067
148.1967 1.070655 369.81046
149.1492 1.2386069 369.25696
150.07733 1.4022605 368.6207
150.28369 1.4386488 368.46524
151.18849 1.5981891 367.71848
152.05023 1.7501378 366.89896
152.87704 1.8959249 365.99847
153.66505 2.0348725 365.01822
154.41052 2.1663203 363.95935
155.10953 2.2895744 362.82358
155.7744 2.4068084 361.5802
143.14577 0.27359003 371.31757
144.15842 0.5449293 371.1866
145.16243 0.8139547 370.96924
146.15141 1.0789512 370.66714
147.12498 1.3398172 370.28067
148.08028 1.5957891 369.81046
149.01451 1.846118 369.25696
149.92485 2.0900404 368.6207
150.12726 2.1442766 368.46524
151.01471 2.3820682 367.71848
151.85994 2.6085443 366.89896
152.67088 2.8258374 365.99847
153.44379 3.0329359 365.01822
154.17497 3.228856 363.95935
154.86058 3.4125636 362.82358
155.5127 3.5872986 361.5802
156.09398 3.7430518 360.2954
143.11803 0.3615395 371.31757
144.10318 0.7201047 371.1866
145.07993 1.0756121 370.96924
146.04205 1.4257956 370.66714
146.98918 1.7705206 370.28067
147.91853 2.1087785 369.81046
148.82741 2.4395792 369.25696
149.71301 2.761914 368.6207
149.90993 2.833585 368.46524
150.77327 3.147818 367.71848
151.59554 3.4470987 366.89896
152.38446 3.7342432 365.99847
153.13637 4.0079165 365.01822
153.8477 4.266818 363.95935
154.51468 4.509581 362.82358
155.1491 4.740487 361.5802
155.71458 4.9463096 360.2954
156.22475 5.1319942 358.94006
143.08275 0.44673744 371.31757
144.0329 0.8897996 371.1866
144.97495 1.3290834 370.96924
145.90288 1.7617888 370.66714
146.81636 2.1877494 370.28067
147.71269 2.6057189 369.81046
148.58928 3.0144737 369.25696
149.44342 3.4127676 368.6207
149.63333 3.5013282 368.46524
150.466 3.8896112 367.71848
151.25906 4.259418 366.89896
152.01996 4.614229 365.99847
152.74516 4.952395 365.01822
153.43121 5.2723074 363.95935
154.07451 5.572278 362.82358
154.68637 5.8575974 361.5802
155.23178 6.111923 360.2954
155.72382 6.3413653 358.94006
156.15869 6.5441494 357.51794
143.04016 0.5285354 371.31757
143.94807 1.0527227 371.1866
144.84825 1.5724397 370.96924
145.73495 2.0843737 370.66714
146.60783 2.588328 370.28067
147.46432 3.0828278 369.81046
148.30194 3.5664263 369.25696
149.11812 4.037648 368.6207
149.2996 4.142424 368.46524
150.09526 4.6018023 367.71848
150.85307 5.039321 366.89896
151.58015 5.4590983 365.99847
152.27312 5.8591824 365.01822
152.92868 6.237671 363.95935
153.54337 6.5925665 362.82358
154.12805 6.9301286 361.5802
154.64922 7.231021 360.2954
155.11938 7.502474 358.94006
155.53493 7.7423882 357.51794
155.8926 7.948893 356.03265
142.99062 0.6063109 371.31757
143.8494 1.2076337 371.1866
144.70085 1.8038286 370.96924
145.53955 2.3910954 370.66714
146.36517 2.969208 370.28067
147.17532 3.536475 369.81046
147.9676 4.091236 369.25696
148.73961 4.6317997 368.6207
148.91127 4.7519937 368.46524
149.66386 5.2789707 367.71848
150.38065 5.7808714 366.89896
151.06837 6.26242 365.99847
151.72383 6.721378 365.01822
152.34392 7.1555624 363.95935
152.92534 7.5626817 362.82358
153.47836 7.949917 361.5802
153.97133 8.295086 360.2954
154.41605 8.606484 358.94006
154.8091 8.881703 357.51794
155.14742 9.118596 356.03265
155.42807 9.315114 354.48816
142.93448 0.67947197 371.31757
143.73758 1.3533541 371.1866
144.53383 2.0214894 370.96924
145.31816 2.6796193 370.66714
146.09026 3.3274903 370.28067
146.84789 3.9632072 369.81046
147.58879 4.584909 369.25696
148.31075 5.1907005 368.6207
148.47127 5.325398 368.46524
149.17508 5.915963 367.71848
149.8454 6.478426 366.89896
150.48854 7.018081 365.99847
151.1015 7.5324197 365.01822
151.68138 8.018994 363.95935
152.22511 8.475241 362.82358
152.74228 8.909202 361.5802
153.20328 9.296021 360.2954
153.61917 9.644995 358.94006
153.98674 9.953423 357.51794
154.30312 10.218901 356.03265
154.56558 10.439133 354.48816
154.77156 10.611964 352.8889
142.87218 0.7474619 371.31757
143.61348 1.4887747 371.1866
144.34848 2.2237654 370.96924
145.07246 2.9477499 370.66714
145.78516 3.6604486 370.28067
146.4845 4.359777 369.81046
147.1684 5.0436883 369.25696
147.83481 5.7100964 368.6207
147.98299 5.8582726 368.46524
148.63264 6.507931 367.71848
149.25139 7.126676 366.89896
149.84505 7.7203307 365.99847
150.41084 8.286136 365.01822
150.9461 8.821399 363.95935
151.44801 9.3232975 362.82358
151.9254 9.800682 361.5802
152.35092 10.226208 360.2954
152.73482 10.610101 358.94006
153.0741 10.94939 357.51794
153.36615 11.241433 356.03265
153.60841 11.483702 354.48816
153.79854 11.673828 352.8889
153.93434 11.809625 351.23962
142.80418 0.8097632 371.31757
143.47807 1.6128646 371.1866
144.1462 2.4091172 370.96924
144.80434 3.193446 370.66714
145.45221 3.9655488 370.28067
146.08792 4.7231665 369.81046
146.70963 5.4640822 369.25696
147.31541 6.186036 368.6207
147.4501 6.346562 368.46524
148.04068 7.0503697 367.71848
148.60313 7.720688 366.89896
149.14279 8.363824 365.99847
149.65714 8.9767885 365.01822
150.1437 9.556666 363.95935
150.59996 10.100398 362.82358
151.03392 10.617573 361.5802
151.42073 11.078567 360.2954
151.76971 11.494457 358.94006
152.07814 11.862026 357.51794
152.34361 12.178411 356.03265
152.56384 12.440873 354.48816
152.73668 12.646848 352.8889
152.86012 12.793962 351.23962
152.93237 12.880077 349.5456
142.73102 0.8659017 371.31757
143.33235 1.7246798 371.1866
143.92854 2.5761344 370.96924
144.51581 3.414838 370.66714
145.09392 4.240468 370.28067
145.6612 5.0506096 369.81046
146.21594 5.8428907 369.25696
146.75652 6.6148953 368.6207
146.87671 6.7865505 368.46524
147.40369 7.539151 367.71848
147.90558 8.2559395 366.89896
148.38713 8.943663 365.99847
148.84608 9.599122 365.01822
149.28027 10.219201 363.95935
149.6874 10.800629 362.82358
150.07463 11.353658 361.5802
150.4198 11.846611 360.2954
150.7312 12.291333 358.94006
151.00641 12.684386 357.51794
151.2433 13.022704 356.03265
151.43982 13.303363 354.48816
151.59406 13.523616 352.8889
151.70421 13.68093 351.23962
151.76868 13.773016 349.5456
151.78609 13.797864 347.81235
142.65324 0.91545016 371.31757
143.17743 1.823369 371.1866
143.69716 2.7235453 370.96924
144.20909 3.6102412 370.66714
144.71304 4.483115 370.28067
145.20753 5.3396144 369.81046
145.69113 6.1772313 369.25696
146.16235 6.9934115 368.6207
146.26714 7.174889 368.46524
146.72652 7.970556 367.71848
147.16403 8.72836 366.89896
147.58382 9.455436 365.99847
147.9839 10.148401 365.01822
148.36238 10.803963 363.95935
148.71729 11.41866 362.82358
149.05484 12.003334 361.5802
149.35573 12.524496 360.2954
149.62718 12.994666 358.94006
149.8671 13.41021 357.51794
150.07361 13.767887 356.03265
150.24492 14.064606 354.48816
150.37935 14.2974615 352.8889
150.47537 14.463778 351.23962
150.53159 14.561132 349.5456
150.54675 14.587403 347.81235
150.51984 14.54078 346.0458
142.57146 0.9580315 371.31757
143.01451 1.9081814 371.1866
143.4538 2.8502288 370.96924
143.8865 3.7781684 370.66714
144.31245 4.6916437 370.28067
144.73044 5.587982 369.81046
145.13919 6.4645596 369.25696
145.53748 7.318704 368.6207
145.62604 7.508623 368.46524
146.01433 8.341298 367.71848
146.38412 9.134353 366.89896
146.73894 9.8952465 365.99847
147.0771 10.620445 365.01822
147.39702 11.3064995 363.95935
147.69699 11.949789 362.82358
147.98232 12.561659 361.5802
148.23663 13.107061 360.2954
148.46608 13.599101 358.94006
148.66887 14.033974 357.51794
148.84341 14.408288 356.03265
148.9882 14.718807 354.48816
149.10184 14.962495 352.8889
149.183 15.136546 351.23962
149.23051 15.23843 349.5456
149.24333 15.265923 347.81235
149.22058 15.217132 346.0458
149.16045 15.088181 344.22675
142.48625 0.99332166 371.31757
142.84482 1.9784714 371.1866
143.20032 2.95522 370.96924
143.5505 3.9173415 370.66714
143.89523 4.864465 370.28067
144.23349 5.793821 369.81046
144.56429 6.702689 369.25696
144.88663 7.5882964 368.6207
144.9583 7.785211 368.46524
145.27254 8.64856 367.71848
145.57181 9.470826 366.89896
145.85896 10.259748 365.99847
146.13263 11.011661 365.01822
146.39153 11.722986 363.95935
146.6343 12.389973 362.82358
146.8652 13.024382 361.5802
147.07103 13.589874 360.2954
147.25671 14.100039 358.94006
147.42082 14.55093 357.51794
147.56207 14.939033 356.03265
147.67926 15.260991 354.48816
147.77122 15.513655 352.8889
147.8369 15.694118 351.23962
147.87535 15.799753 349.5456
147.88573 15.828259 347.81235
147.86731 15.777672 346.0458
147.81865 15.643971 344.22675
147.74066 15.429714 342.4126
142.3983 1.021052 371.31757
142.66965 2.033704 371.1866
142.93866 3.0377202 370.96924
143.20366 4.026701 370.66714
143.46452 5.0002656 370.28067
143.7205 5.9555664 369.81046
143.97083 6.8898063 369.25696
144.21475 7.800137 368.6207
144.26898 8.002549 368.46524
144.50677 8.889999 367.71848
144.73326 9.735221 366.89896
144.95055 10.546168 365.99847
145.15765 11.319071 365.01822
145.35356 12.050255 363.95935
145.53728 12.735861 362.82358
145.712 13.3879795 361.5802
145.86777 13.969259 360.2954
146.00829 14.493667 358.94006
146.13246 14.957146 357.51794
146.23936 15.356083 356.03265
146.32803 15.687028 354.48816
146.39763 15.946746 352.8889
146.44734 16.132246 351.23962
146.47643 16.240833 349.5456
146.48428 16.270134 347.81235
146.47035 16.218134 346.0458
146.43352 16.0807 344.22675
146.37451 15.860462 342.4126
146.29274 15.555266 340.58456
142.30827 1.0410116 371.31757
142.49033 2.073459 371.1866
142.67082 3.0971017 370.96924
142.8486 4.1054153 370.66714
143.02364 5.098011 370.28067
143.19537 6.0719857 369.81046
143.36331 7.0244884 369.25696
143.52698 7.952615 368.6207
143.56335 8.158982 368.46524
143.7229 9.063781 367.71848
143.87485 9.925525 366.89896
144.02063 10.752325 365.99847
144.15959 11.540337 365.01822
144.29103 12.285813 363.95935
144.41429 12.984821 362.82358
144.53152 13.649689 361.5802
144.63602 14.242331 360.2954
144.7303 14.776989 358.94006
144.81361 15.249528 357.51794
144.88533 15.656264 356.03265
144.94482 15.993679 354.48816
144.99152 16.258472 352.8889
145.02487 16.4476 351.23962
145.04439 16.558308 349.5456
145.04965 16.588182 347.81235
145.04031 16.535166 346.0458
145.0156 16.395046 344.22675
144.97601 16.170504 342.4126
144.92114 15.859342 340.58456
144.85095 15.46128 338.75
142.21684 1.0530483 371.31757
142.30821 2.0974333 371.1866
142.3988 3.1329122 370.96924
142.48804 4.152884 370.66714
142.57588 5.156957 370.28067
142.66208 6.1421933 369.81046
142.74638 7.1057096 369.25696
142.82852 8.044567 368.6207
142.84679 8.253322 368.46524
142.92686 9.168582 367.71848
143.00313 10.04029 366.89896
143.0763 10.87665 365.99847
143.14604 11.673773 365.01822
143.212 12.427869 363.95935
143.27388 13.13496 362.82358
143.33272 13.807515 361.5802
143.38516 14.40701 360.2954
143.43248 14.947849 358.94006
143.4743 15.425853 357.51794
143.5103 15.837292 356.03265
143.54016 16.178608 354.48816
143.5636 16.446465 352.8889
143.58032 16.637777 351.23962
143.59013 16.749765 349.5456
143.59277 16.779985 347.81235
143.58807 16.726357 346.0458
143.57568 16.584614 344.22675
143.5558 16.357475 342.4126
143.52827 16.042717 340.58456
143.49304 15.640054 338.75
143.45013 15.149683 336.9162
142.12471 1.0570709 371.31757
142.12471 2.1054454 371.1866
142.12471 3.1448793 370.96924
142.12471 4.1687474 370.66714
142.12471 5.176656 370.28067
142.12471 6.1656556 369.81046
142.12471 7.1328526 369.25696
142.12471 8.075296 368.6207
142.12471 8.284848 368.46524
142.12471 9.203605 367.71848
142.12471 10.078642 366.89896
142.12471 10.918197 365.99847
142.12471 11.718365 365.01822
142.12471 12.475342 363.95935
142.12471 13.185133 362.82358
142.12471 13.860257 361.5802
142.12471 14.462042 360.2954
142.12471 15.004948 358.94006
142.12471 15.4847765 357.51794
142.12471 15.897786 356.03265
142.12471 16.240406 354.48816
142.12471 16.509287 352.8889
142.12471 16.701332 351.23962
142.12471 16.813747 349.5456
142.12471 16.844082 347.81235
142.12471 16.790247 346.0458
