329.2205 146.55128 317.21667
327.87213 151.458 317.12643
326.31982 157.10669 316.54602
324.6292 163.25871 315.41013
322.83224 169.79779 313.67838
320.9586 176.61592 311.3281
319.03467 183.61697 308.34958
317.08353 190.71706 304.74146
316.5008 192.83765 303.54684
314.51752 200.05472 299.06424
312.5832 207.09363 294.04025
310.685 214.00105 288.43115
308.83923 220.7177 282.2621
307.06046 227.19055 275.56104
305.3617 233.37222 268.35815
304.03827 238.18811 262.10742
302.51315 243.73785 254.06783
301.10107 248.87634 245.63599
299.80878 253.57901 236.83994
298.6442 257.81686 227.7205
297.61414 261.5652 218.31879
296.7245 264.80255 208.6769
295.9802 267.51105 198.83818
295.3852 269.6762 188.8457
295.09198 270.74316 182.57616
294.74545 272.00412 172.43552
294.55417 272.70023 162.25633
294.51886 272.82874 152.08447
294.6393 272.39038 141.96239
294.91455 271.3888 131.9314
295.34283 269.83026 122.03291
295.9217 267.72382 112.30622
296.648 265.08087 102.78939
297.51263 261.9345 93.57099
298.52087 258.2656 84.583
299.66333 254.10826 75.91094
300.93436 249.48311 67.58765
302.328 244.41165 59.642464
331.415 138.12088 316.12762
330.16678 141.59628 316.83606
328.4722 146.31447 317.21667
326.75217 151.10356 317.12643
324.77203 156.61687 316.54602
322.61545 162.62141 315.41013
320.3232 169.00375 313.67838
317.9331 175.65845 311.3281
315.4789 182.49168 308.34958
312.99 189.42159 304.74146
312.24664 191.49133 303.54684
309.7167 198.53542 299.06424
307.24924 205.4056 294.04025
304.82785 212.14745 288.43115
302.47336 218.7031 282.2621
300.20428 225.02078 275.56104
298.03732 231.05429 268.35815
296.34912 235.75473 262.10742
294.4037 241.17146 254.06783
292.6024 246.18677 245.63599
290.9539 250.7767 236.83994
289.46832 254.913 227.7205
288.15436 258.57144 218.31879
287.0195 261.73123 208.6769
286.07004 264.3748 198.83818
285.31107 266.48804 188.8457
284.93704 267.52945 182.57616
284.495 268.76016 172.43552
284.25098 269.43958 162.25633
284.20593 269.565 152.08447
284.3596 269.13718 141.96239
284.7107 268.15958 131.9314
285.25705 266.63843 122.03291
285.99545 264.58246 112.30622
286.92194 262.0029 102.78939
288.02487 258.93192 93.57099
289.311 255.35095 84.583
290.76834 251.29327 75.91094
292.3897 246.77898 67.58765
294.16748 241.8291 59.642464
296.09338 236.46681 52.103878
331.3056 138.0768 316.12762
329.795 141.44644 316.83606
327.74423 146.02107 317.21667
325.66266 150.66444 317.12643
323.2663 156.01 316.54602
320.6564 161.83183 315.41013
317.8823 168.01999 313.67838
314.9898 174.47218 311.3281
312.01974 181.0975 308.34958
309.00763 187.81654 304.74146
308.108 189.82332 303.54684
305.0463 196.65306 299.06424
302.06015 203.31421 294.04025
299.1298 209.85092 288.43115
296.28036 216.20709 282.2621
293.53436 222.33257 275.56104
290.9119 228.18248 268.35815
288.86884 232.7399 262.10742
286.51443 237.9918 254.06783
284.33453 242.85452 245.63599
282.3395 247.3048 236.83994
280.54166 251.31522 227.7205
278.9515 254.86235 218.31879
277.5781 257.926 208.6769
276.42905 260.48914 198.83818
275.51053 262.5381 188.8457
275.0579 263.5478 182.57616
274.52295 264.7411 172.43552
274.22763 265.3998 162.25633
274.17313 265.52142 152.08447
274.35907 265.10663 141.96239
274.784 264.15875 131.9314
275.44516 262.68387 122.03291
276.33878 260.6905 112.30622
277.46002 258.1894 102.78939
278.7948 255.21187 93.57099
280.3513 251.73985 84.583
282.11496 247.80565 75.91094
284.07712 243.42871 67.58765
286.2286 238.62944 59.642464
288.55933 233.43031 52.103878
291.0587 227.85501 44.99799
331.19992 138.02446 316.12762
329.4358 141.26859 316.83606
327.04086 145.67282 317.21667
324.60992 150.14322 317.12643
321.8114 155.28963 316.54602
318.76352 160.8946 315.41013
315.52386 166.85225 313.67838
312.14597 173.0641 311.3281
308.67743 179.44263 308.34958
305.15982 185.91138 304.74146
304.10922 187.8434 303.54684
300.5337 194.41873 299.06424
297.0464 200.83174 294.04025
293.62424 207.12495 288.43115
290.29663 213.24435 282.2621
287.08978 219.14165 275.56104
284.0272 224.77365 268.35815
281.64127 229.1613 262.10742
278.89175 234.21758 254.06783
276.34598 238.89915 245.63599
274.01614 243.18365 236.83994
271.9166 247.04468 227.7205
270.05957 250.45969 218.31879
268.45566 253.40921 208.6769
267.1138 255.87685 198.83818
266.0411 257.8495 188.8457
265.5125 258.82156 182.57616
264.88782 259.9704 172.43552
264.54294 260.6046 162.25633
264.47928 260.72168 152.08447
264.69644 260.32233 141.96239
265.19266 259.4098 131.9314
265.9648 257.98987 122.03291
267.0084 256.0707 112.30622
268.31778 253.66278 102.78939
269.8766 250.79617 93.57099
271.69427 247.45349 84.583
273.75394 243.66583 75.91094
276.04538 239.45195 67.58765
278.55792 234.83145 59.642464
281.27982 229.826 52.103878
284.19864 224.45837 44.99799
287.30142 218.75244 38.348675
331.09854 137.96419 316.12762
329.09128 141.06375 316.83606
326.3662 145.27173 317.21667
323.60022 149.54292 317.12643
320.41592 154.46002 316.54602
316.94794 159.81523 315.41013
313.26172 165.5074 313.67838
309.4182 171.44246 311.3281
305.4716 177.53674 308.34958
301.46915 183.71724 304.74146
300.27374 185.56317 303.54684
296.20535 191.8455 299.06424
292.23737 197.97275 294.04025
288.34354 203.98553 288.43115
284.55725 209.83226 282.2621
280.90836 215.46677 275.56104
277.42365 220.8478 268.35815
274.70883 225.03995 262.10742
271.58035 229.8709 254.06783
268.6837 234.34386 245.63599
266.0327 238.43744 236.83994
263.64374 242.12643 227.7205
261.53076 245.38927 218.31879
259.70578 248.20735 208.6769
258.17896 250.56503 198.83818
256.9584 252.44977 188.8457
256.35693 253.37854 182.57616
255.64612 254.47618 172.43552
255.25372 255.08212 162.25633
255.18129 255.19398 152.08447
255.42838 254.81242 141.96239
255.993 253.94054 131.9314
256.87155 252.58388 122.03291
258.059 250.75026 112.30622
259.5489 248.44963 102.78939
261.32257 245.71075 93.57099
263.3908 242.51703 84.583
265.73434 238.89815 75.91094
268.34164 234.87202 67.58765
271.2005 230.45743 59.642464
274.29758 225.67502 52.103878
277.6187 220.54659 44.99799
281.1492 215.0949 38.348675
284.87357 209.3438 32.177837
331.00204 137.89633 316.12762
328.76343 140.83316 316.83606
325.72424 144.82018 317.21667
322.6394 148.86711 317.12643
319.08807 153.52602 316.54602
315.2203 158.60005 315.41013
311.1092 163.99333 313.67838
306.82263 169.61676 311.3281
302.42108 175.39105 308.34958
297.95728 181.24704 304.74146
296.62405 182.99605 303.54684
292.08667 188.9485 299.06424
287.66132 194.75403 294.04025
283.31863 200.45111 288.43115
279.0959 205.99083 282.2621
275.0264 211.32948 275.56104
271.13998 216.42798 268.35815
268.11224 220.4 262.10742
264.6231 224.9773 254.06783
261.39255 229.21541 245.63599
258.436 233.09404 236.83994
255.77165 236.58932 227.7205
253.4151 239.68083 218.31879
251.37976 242.35097 208.6769
249.67694 244.58484 198.83818
248.3157 246.37062 188.8457
247.64491 247.25063 182.57616
246.85214 248.29063 172.43552
246.4145 248.86476 162.25633
246.33372 248.97075 152.08447
246.6093 248.60922 141.96239
247.23901 247.78311 131.9314
248.21884 246.4977 122.03291
249.54317 244.76035 112.30622
251.20479 242.5805 102.78939
253.1829 239.98546 93.57099
255.48955 236.95943 84.583
258.10327 233.53056 75.91094
261.0111 229.71584 67.58765
264.19952 225.53304 59.642464
267.65356 221.00174 52.103878
271.35754 216.14258 44.99799
275.29498 210.97714 38.348675
279.44867 205.52802 32.177837
283.77557 199.85164 26.536018
330.91107 137.8213 316.12762
328.4542 140.57812 316.83606
325.1187 144.32082 317.21667
321.73315 148.11972 317.12643
317.8356 152.4931 316.54602
313.59076 157.25618 315.41013
309.07886 162.31894 313.67838
304.37442 167.59773 311.3281
299.54376 173.01814 308.34958
294.64478 178.51524 304.74146
293.18158 180.15706 303.54684
288.20187 185.74472 299.06424
283.3451 191.19446 294.04025
278.57904 196.54239 288.43115
273.9446 201.7426 282.2621
269.4784 206.75407 275.56104
265.2131 211.54012 268.35815
261.8902 215.2687 262.10742
258.0609 219.56549 254.06783
254.51541 223.54385 245.63599
251.27061 227.1848 236.83994
248.34654 230.46588 227.7205
245.76024 233.36792 218.31879
243.52647 235.8744 208.6769
241.65765 237.97137 198.83818
240.16371 239.64772 188.8457
239.42752 240.47379 182.57616
238.55746 241.45006 172.43552
238.07716 241.989 162.25633
237.9885 242.0885 152.08447
238.29094 241.74913 141.96239
238.98204 240.97365 131.9314
240.0574 239.767 122.03291
241.51082 238.13614 112.30622
243.33444 236.08989 102.78939
245.5054 233.65387 93.57099
248.03693 230.8133 84.583
250.90544 227.59456 75.91094
254.09676 224.01363 67.58765
257.596 220.08716 59.642464
261.3868 215.83357 52.103878
265.45187 211.2722 44.99799
269.77316 206.42332 38.348675
274.3318 201.30815 32.177837
279.08054 195.97966 26.536018
284.05362 190.39943 21.376371
330.82608 137.73952 316.12762
328.16537 140.30019 316.83606
324.5532 143.77655 317.21667
320.88675 147.30516 317.12643
316.66586 151.36736 316.54602
312.06888 155.79152 315.41013
307.18265 160.49403 313.67838
302.08792 165.39722 311.3281
296.8565 170.43195 308.34958
291.55112 175.53789 304.74146
289.96652 177.0629 303.54684
284.5737 182.25296 299.06424
279.314 187.31493 294.04025
274.15256 192.28232 288.43115
269.13367 197.11252 282.2621
264.29694 201.76741 275.56104
259.6778 206.21289 268.35815
256.0792 209.67618 262.10742
251.93224 213.66724 254.06783
248.09259 217.36252 245.63599
244.57861 220.74438 236.83994
241.41194 223.79199 227.7205
238.61108 226.48755 218.31879
236.192 228.81569 208.6769
234.16814 230.76344 198.83818
232.55026 232.32051 188.8457
231.75299 233.08781 182.57616
230.81076 233.99461 172.43552
230.29062 234.4952 162.25633
230.1946 234.58762 152.08447
230.52213 234.27238 141.96239
231.27057 233.5521 131.9314
232.43513 232.4313 122.03291
234.00914 230.91649 112.30622
235.98404 229.01584 102.78939
238.33511 226.75316 93.57099
241.07664 224.11469 84.583
244.18314 221.12498 75.91094
247.6392 217.79886 67.58765
251.42876 214.15178 59.642464
255.53403 210.20085 52.103878
259.93634 205.96405 44.99799
264.61615 201.46019 38.348675
269.55295 196.70898 32.177837
274.69565 191.75964 26.536018
280.0813 186.57646 21.376371
285.6592 181.20828 16.747862
330.74762 137.65146 316.12762
327.8987 140.00095 316.83606
324.031 143.19061 317.21667
320.10522 146.42819 317.12643
315.58575 150.15536 316.54602
310.66357 154.21465 315.41013
305.43173 158.52933 313.67838
299.97662 163.02812 311.3281
294.37515 167.64763 308.34958
288.69443 172.33246 304.74146
286.99777 173.73169 303.54684
281.22348 178.49371 299.06424
275.5917 183.1382 294.04025
270.06516 187.69592 288.43115
264.69125 192.12775 282.2621
259.5124 196.39873 275.56104
254.5665 200.47758 268.35815
250.71335 203.65524 262.10742
246.27304 207.31712 254.06783
242.16179 210.70766 245.63599
238.39925 213.81061 236.83994
235.00858 216.60686 227.7205
232.0096 219.08011 218.31879
229.41939 221.21623 208.6769
227.25238 223.00336 198.83818
225.52005 224.43199 188.8457
224.66638 225.13602 182.57616
223.6575 225.96803 172.43552
223.10057 226.42734 162.25633
222.99774 226.51213 152.08447
223.34845 226.2229 141.96239
224.14983 225.56201 131.9314
225.39679 224.53366 122.03291
227.08212 223.14377 112.30622
229.19672 221.39987 102.78939
231.7141 219.3238 93.57099
234.64957 216.90294 84.583
237.9758 214.15982 75.91094
241.67633 211.108 67.58765
245.73395 207.76172 59.642464
250.12962 204.13663 52.103878
254.84335 200.24925 44.99799
259.8542 196.11685 38.348675
265.1402 191.75749 32.177837
270.64667 187.21634 26.536018
276.4133 182.46065 21.376371
282.38577 177.53519 16.747862
288.53986 172.45996 12.66408
330.67612 137.55766 316.12762
327.6557 139.68217 316.83606
323.5552 142.5664 317.21667
319.3931 145.49397 317.12643
314.60156 148.86424 316.54602
309.38312 152.53484 315.41013
303.83633 156.43636 313.67838
298.05283 160.50436 311.3281
292.11417 164.68152 308.34958
286.09152 168.91777 304.74146
284.29272 170.18301 303.54684
278.17084 174.48904 299.06424
272.20007 178.6888 294.04025
266.34085 182.81009 288.43115
260.64343 186.81755 282.2621
255.15283 190.67955 275.56104
249.90923 194.36783 268.35815
245.82414 197.24121 262.10742
241.11656 200.55244 254.06783
236.75783 203.61832 245.63599
232.76878 206.42413 236.83994
229.17401 208.95264 227.7205
225.99452 211.18906 218.31879
223.2484 213.12064 208.6769
220.95093 214.73663 198.83818
219.11432 216.02847 188.8457
218.20926 216.66508 182.57616
217.13966 217.41742 172.43552
216.5492 217.83275 162.25633
216.44019 217.90942 152.08447
216.81201 217.64789 141.96239
217.66162 217.05028 131.9314
218.98364 216.1204 122.03291
220.77043 214.8636 112.30622
223.0123 213.2867 102.78939
225.68123 211.40942 93.57099
228.7934 209.22037 84.583
232.31985 206.73991 75.91094
236.24315 203.98033 67.58765
240.54501 200.95447 59.642464
245.20528 197.6765 52.103878
250.20274 194.16136 44.99799
255.51521 190.42467 38.348675
261.11945 186.48274 32.177837
266.95737 182.37643 26.536018
273.07114 178.07611 21.376371
279.4031 173.6223 16.747862
285.9276 169.03305 12.66408
292.61887 164.32654 9.136409
330.612 137.45866 316.12762
327.43784 139.34573 316.83606
323.12857 141.90761 317.21667
318.75458 144.50798 317.12643
313.71912 147.50159 316.54602
308.235 150.76192 315.41013
302.40582 154.2274 313.67838
296.3279 157.84076 311.3281
290.0869 161.55106 308.34958
283.75766 165.31383 304.74146
281.86728 166.43767 303.54684
275.43372 170.26245 299.06424
269.159 173.99281 294.04025
263.00146 177.65349 288.43115
257.014 181.21306 282.2621
251.2439 184.64343 275.56104
245.73332 187.9195 268.35815
241.44028 190.47174 262.10742
236.49303 193.4129 254.06783
231.9124 196.13611 245.63599
227.72028 198.62834 236.83994
223.9425 200.87425 227.7205
220.60114 202.86072 218.31879
217.71521 204.57642 208.6769
215.30078 206.0118 198.83818
213.37067 207.15926 188.8457
212.41954 207.72472 182.57616
211.29549 208.39297 172.43552
210.67496 208.76187 162.25633
210.56041 208.82999 152.08447
210.95116 208.59769 141.96239
211.84402 208.06686 131.9314
213.23334 207.2409 122.03291
215.1111 206.12457 112.30622
217.4671 204.7239 102.78939
220.2719 203.05644 93.57099
223.54251 201.11206 84.583
227.24849 198.90883 75.91094
231.37152 196.45766 67.58765
235.8924 193.76997 59.642464
240.78992 190.85838 52.103878
246.0418 187.73611 44.99799
251.62471 184.41704 38.348675
257.51425 180.91568 32.177837
263.64938 177.2683 26.536018
270.07437 173.44861 21.376371
276.72873 169.49257 16.747862
283.5854 165.41623 12.66408
290.61728 161.23575 9.136409
297.7971 156.96732 6.1742964
330.55566 137.35506 316.12762
327.24634 138.9936 316.83606
322.75363 141.2181 317.21667
318.1934 143.476 317.12643
312.94357 146.07536 316.54602
307.22595 148.90633 315.41013
301.1486 151.91542 313.67838
294.81192 155.05292 311.3281
288.3052 158.27458 308.34958
281.70648 161.54182 304.74146
279.73563 162.51765 303.54684
273.0282 165.83873 299.06424
266.4863 169.07782 294.04025
260.06662 172.2564 288.43115
253.82426 175.34718 282.2621
247.80847 178.3258 275.56104
242.0633 181.17041 268.35815
237.58748 183.38654 262.10742
232.4296 185.94037 254.06783
227.65395 188.30493 245.63599
223.28336 190.46896 236.83994
219.34474 192.4191 227.7205
215.86111 194.14395 218.31879
212.85231 195.6337 208.6769
210.3351 196.88005 198.83818
208.32281 197.87639 188.8457
207.33119 198.36739 182.57616
206.15927 198.94763 172.43552
205.51233 199.26796 162.25633
205.3929 199.32709 152.08447
205.80028 199.12538 141.96239
206.73116 198.66447 131.9314
208.17963 197.9473 122.03291
210.13733 196.97797 112.30622
212.59364 195.76176 102.78939
215.51785 194.3139 93.57099
218.9277 192.62558 84.583
222.79147 190.71251 75.91094
227.09004 188.58415 67.58765
231.80339 186.25043 59.642464
236.90941 183.72226 52.103878
242.3849 181.01118 44.99799
248.2055 178.12921 38.348675
254.34578 175.08897 32.177837
260.74213 171.92194 26.536018
267.44067 168.60529 21.376371
274.3783 165.17024 16.747862
281.52692 161.63074 12.66408
288.8582 158.0008 9.136409
296.34366 154.2945 6.1742964
303.95447 150.52615 3.7853122
330.50742 137.24744 316.12762
327.0824 138.62784 316.83606
322.43256 140.50189 317.21667
317.71286 142.4041 317.12643
312.27945 144.59396 316.54602
306.3619 146.97894 315.41013
300.07205 149.51399 313.67838
293.5138 152.1572 311.3281
286.77957 154.87134 308.34958
279.9501 157.62386 304.74146
277.91034 158.44597 303.54684
270.96832 161.24384 299.06424
264.1977 163.97266 294.04025
257.55353 166.65048 288.43115
251.0929 169.25436 282.2621
244.86674 171.76373 275.56104
238.92067 174.1602 268.35815
234.28833 176.0272 262.10742
228.9501 178.17871 254.06783
224.00746 180.17078 245.63599
219.48404 181.99388 236.83994
215.40768 183.6368 227.7205
211.80225 185.0899 218.31879
208.68825 186.34497 208.6769
206.083 187.39497 198.83818
204.00035 188.23436 188.8457
202.97406 188.648 182.57616
201.76115 189.13684 172.43552
201.0916 189.4067 162.25633
200.96799 189.45651 152.08447
201.38962 189.28658 141.96239
202.35304 188.89828 131.9314
203.85216 188.29408 122.03291
205.87831 187.47746 112.30622
208.42053 186.45287 102.78939
211.44699 185.2331 93.57099
214.97607 183.81075 84.583
218.97496 182.19905 75.91094
223.42383 180.40599 67.58765
228.302 178.43993 59.642464
233.58658 176.31004 52.103878
239.25351 174.02606 44.99799
245.27766 171.59811 38.348675
251.63264 169.03682 32.177837
258.25266 166.36871 26.536018
265.18542 163.57455 21.376371
272.36566 160.68066 16.747862
279.76425 157.69878 12.66408
287.35187 154.64069 9.136409
295.0991 151.51826 6.1742964
302.97604 148.34358 3.7853122
310.95224 145.12888 1.9752681
330.46756 137.13643 316.12762
326.9469 138.25061 316.83606
322.16727 139.76321 317.21667
317.3158 141.29855 317.12643
311.7307 143.06607 316.54602
305.64795 144.99107 315.41013
299.1825 147.03719 313.67838
292.44113 149.17062 311.3281
285.51892 151.3613 308.34958
278.49878 153.58295 304.74146
276.40207 154.24649 303.54684
269.26627 156.50476 299.06424
262.3066 158.70728 294.04025
255.47696 160.86865 288.43115
248.83594 162.97032 282.2621
242.43596 164.99571 275.56104
236.3239 166.93 268.35815
231.56224 168.43692 262.10742
226.07497 170.17348 254.06783
220.99434 171.78133 245.63599
216.34462 173.25282 236.83994
212.15448 174.57887 227.7205
208.44838 175.75174 218.31879
205.24744 176.76474 208.6769
202.56947 177.61224 198.83818
200.42868 178.28973 188.8457
199.37372 178.6236 182.57616
198.12697 179.01816 172.43552
197.43872 179.23596 162.25633
197.31166 179.27617 152.08447
197.74504 179.13902 141.96239
198.73537 178.8256 131.9314
200.27635 178.33794 122.03291
202.35907 177.67882 112.30622
204.97226 176.85182 102.78939
208.0832 175.86731 93.57099
211.71082 174.71928 84.583
215.82133 173.41843 75.91094
220.39442 171.97119 67.58765
225.40877 170.38431 59.642464
230.84088 168.6652 52.103878
236.66603 166.82172 44.99799
242.85835 164.86205 38.348675
249.39076 162.79474 32.177837
256.1956 160.64122 26.536018
263.3219 158.38596 21.376371
270.7026 156.0502 16.747862
278.30774 153.6434 12.66408
286.10718 151.17513 9.136409
294.0707 148.6549 6.1742964
302.16754 146.09251 3.7853122
310.36642 143.49782 1.9752681
318.63937 140.87968 0.74744225
330.4363 137.0227 316.12762
354.4923 138.4037 1.9752681
354.55872 136.6719 1.9752681
345.88138 136.6719 0.74744225
326.8407 137.8641 316.83606
321.9593 139.00641 317.21667
317.00455 140.16586 317.12643
311.3005 141.50066 316.54602
305.08826 142.95438 315.41013
298.48514 144.49956 313.67838
291.60025 146.11069 311.3281
284.53064 147.76505 308.34958
277.36105 149.4428 304.74146
275.2197 149.9439 303.54684
267.93195 151.64929 299.06424
260.82413 153.31259 294.04025
253.84904 154.94481 288.43115
247.06664 156.53195 282.2621
240.53041 158.0615 275.56104
234.28821 159.52223 268.35815
229.42516 160.66022 262.10742
223.82106 161.97163 254.06783
218.63226 163.18585 245.63599
213.88354 164.2971 236.83994
209.6042 165.29851 227.7205
205.81918 166.18423 218.31879
202.55008 166.94923 208.6769
199.8151 167.58925 198.83818
197.62874 168.10088 188.8457
196.55133 168.353 182.57616
195.27802 168.65096 172.43552
194.5751 168.81544 162.25633
194.44534 168.84581 152.08447
194.88797 168.74223 141.96239
195.89938 168.50555 131.9314
197.47316 168.13728 122.03291
199.60022 167.63953 112.30622
202.26904 167.015 102.78939
205.44623 166.27151 93.57099
209.15108 165.40454 84.583
213.34912 164.42216 75.91094
218.01956 163.32924 67.58765
223.14069 162.13084 59.642464
228.68845 160.83263 52.103878
234.63762 159.44046 44.99799
240.96179 157.96054 38.348675
247.63329 156.39935 32.177837
254.583 154.77307 26.536018
261.86102 153.06993 21.376371
269.39886 151.30602 16.747862
277.16592 149.48845 12.66408
285.13144 147.62445 9.136409
293.26453 145.72124 6.1742964
301.53375 143.78616 3.7853122
309.9072 141.82669 1.9752681
318.3563 139.84953 0.74744225
326.85376 137.86105 0.10442734
345.84045 137.73946 0.74744225
337.01706 137.86105 0.10442734
345.71793 138.80074 0.74744225
337.15436 136.6719 0.10442734
336.91113 138.24657 0.10442734
345.51453 139.84953 0.74744225
354.29358 140.12534 1.9752681
363.06674 139.062 3.7853122
363.15836 136.6719 3.7853122
336.776 138.62283 0.10442734
345.23145 140.87968 0.74744225
353.9636 141.82669 1.9752681
362.79245 141.43806 3.7853122
371.53445 139.7121 6.1742964
371.651 136.6719 6.1742964
336.61246 138.98766 0.10442734
344.87033 141.88515 0.74744225
353.50436 143.49782 1.9752681
362.33707 143.78616 3.7853122
371.18555 142.73445 6.1742964
379.86276 140.3515 9.136409
380.00378 136.6719 9.136409
336.42145 139.33888 0.10442734
344.4333 142.86 0.74744225
352.91858 145.12888 1.9752681
361.70328 146.09251 3.7853122
370.6063 145.72124 6.1742964
379.44046 144.0095 9.136409
388.01944 140.97772 12.66408
388.18448 136.6719 12.66408
336.20413 139.67445 0.10442734
343.92294 143.79855 0.74744225
352.20963 146.71031 1.9752681
360.89478 148.34358 3.7853122
369.8001 148.6549 6.1742964
378.73938 147.62445 9.136409
387.52527 145.25829 12.66408
395.97293 141.58835 16.747862
396.16138 136.6719 16.747862
335.96176 139.99242 0.10442734
343.34222 144.69528 0.74744225
351.3817 148.23283 1.9752681
359.91635 150.52615 3.7853122
368.77173 151.51826 6.1742964
377.76364 151.17513 9.136409
386.7049 149.48845 12.66408
395.40866 146.47595 16.747862
403.69168 142.18095 21.376371
403.90286 136.6719 21.376371
335.69577 140.29088 0.10442734
342.69458 145.54492 0.74744225
350.43967 149.6875 1.9752681
358.7737 152.62741 3.7853122
367.52716 154.2945 6.1742964
376.51895 154.64069 9.136409
385.56308 153.6434 12.66408
394.47192 151.30602 16.747862
403.05942 147.65768 21.376371
411.1444 142.75313 26.536018
411.3775 136.6719 26.536018
335.4077 140.56812 0.10442734
341.98376 146.34248 0.74744225
349.38904 151.0658 1.9752681
357.47357 154.63506 3.7853122
366.07373 156.96732 6.1742964
375.01263 158.0008 9.136409
384.10657 157.69878 12.66408
393.1682 156.0502 16.747862
402.00977 153.06993 21.376371
410.44647 148.79868 26.536018
418.26093 143.2995 32.177837
418.51498 136.6719 32.177837
335.09927 140.8225 0.10442734
341.21402 147.08331 0.74744225
348.236 152.35963 1.9752681
356.0236 156.53728 3.7853122
364.41995 159.52103 6.1742964
373.25354 161.23575 9.136409
382.3439 161.63074 12.66408
391.50516 160.68066 16.747862
400.54892 158.38596 21.376371
409.2878 154.77307 26.536018
417.5003 149.88821 32.177837
425.09256 143.82399 38.348675
425.3667 136.6719 38.348675
334.77225 141.0525 0.10442734
340.3898 147.76303 0.74744225
346.98727 153.5614 1.9752681
354.43222 158.32292 3.7853122
362.57556 161.94064 6.1742964
371.25195 164.32654 9.136409
380.2854 165.41623 12.66408
389.49252 165.17024 16.747862
398.6854 163.57455 21.376371
407.67523 160.64122 26.536018
416.23752 156.39935 32.177837
424.27173 150.93413 38.348675
431.5685 144.32118 44.99799
431.8617 136.6719 44.99799
334.4286 141.2568 0.10442734
339.516 148.37766 0.74744225
345.65024 154.66405 1.9752681
352.70883 159.9815 3.7853122
360.55136 164.21199 6.1742964
369.01965 167.25505 9.136409
377.94318 169.03305 12.66408
387.1421 169.49257 16.747862
396.43015 168.60529 21.376371
405.61816 166.36871 26.536018
414.48004 162.79474 32.177837
422.90903 157.96054 38.348675
430.6906 151.92558 44.99799
437.6605 144.7889 52.103878
437.97162 136.6719 52.103878
334.0703 141.4342 0.10442734
338.59766 148.9236 0.74744225
344.2327 155.66112 1.9752681
350.86356 161.5033 3.7853122
358.35922 166.3217 6.1742964
366.5697 170.00409 9.136409
375.33096 172.45996 12.66408
384.4677 173.6223 16.747862
393.79645 173.44861 21.376371
403.1287 171.92194 26.536018
412.23816 169.03682 32.177837
421.01245 164.86205 38.348675
429.2332 159.44046 44.99799
436.7289 152.85825 52.103878
443.3414 145.22504 59.642464
443.66925 136.6719 59.642464
333.6995 141.58366 0.10442734
337.64026 149.39764 0.74744225
342.743 156.54674 1.9752681
348.9072 162.87938 3.7853122
356.01202 168.25743 6.1742964
363.91653 172.55751 9.136409
372.46408 175.67685 12.66408
381.48505 177.53519 16.747862
390.79968 178.07611 21.376371
400.22144 177.2683 26.536018
409.52502 175.08897 32.177837
418.59314 171.59811 38.348675
427.20477 166.82172 44.99799
435.18237 160.83263 52.103878
442.35977 153.728 59.642464
448.58542 145.62766 67.58765
448.9287 136.6719 67.58765
333.31833 141.70428 0.10442734
336.64938 149.79701 0.74744225
341.18988 157.31573 1.9752681
346.85123 164.10165 3.7853122
353.52353 170.0078 6.1742964
361.07568 174.90034 9.136409
369.35938 178.66484 12.66408
378.2116 181.20828 16.747862
387.45752 182.46065 21.376371
396.91345 182.37643 26.536018
406.35657 180.91568 32.177837
415.6653 178.12921 38.348675
424.6173 174.02606 44.99799
433.02994 168.6652 52.103878
440.73013 162.13084 59.642464
447.5576 154.53084 67.58765
453.36798 145.99483 75.91094
453.72534 136.6719 75.91094
332.92905 141.79538 0.10442734
335.63083 150.11934 0.74744225
339.58246 157.9636 1.9752681
344.70773 165.16296 3.7853122
350.90833 171.56253 6.1742964
358.0638 177.01884 9.136409
366.03503 181.4064 12.66408
374.6666 184.62001 16.747862
383.7895 186.57646 21.376371
393.22412 187.21634 26.536018
402.75137 186.48274 32.177837
412.2461 184.41704 38.348675
421.4859 181.01118 44.99799
430.28424 176.31004 52.103878
438.46204 170.38431 59.642464
445.85126 163.32924 67.58765
452.298 155.26305 75.91094
457.66678 146.32486 84.583
458.03677 136.6719 84.583
332.53394 141.85641 0.10442734
334.5906 150.36276 0.74744225
337.93018 158.4865 1.9752681
342.4893 166.05708 3.7853122
348.18182 172.91252 6.1742964
354.89862 178.90057 9.136409
362.5106 183.88544 12.66408
370.87082 187.75035 16.747862
379.8172 190.39943 21.376371
389.17517 191.75964 26.536018
398.7306 191.75749 32.177837
408.3556 190.42467 38.348675
417.829 187.73611 44.99799
426.9614 183.72226 52.103878
435.56882 178.43993 59.642464
443.47638 171.97119 67.58765
450.5217 164.42216 75.91094
456.55893 155.92119 84.583
461.46054 146.61613 93.57099
461.8417 136.6719 93.57099
332.1353 141.88701 0.10442734
333.5348 150.52585 0.74744225
336.24268 158.88138 1.9752681
340.20892 166.77875 3.7853122
345.35995 174.04984 6.1742964
351.59866 180.53448 9.136409
358.8067 186.08742 12.66408
366.84656 190.58096 16.747862
375.5639 193.9071 21.376371
384.79028 195.97966 26.536018
394.31784 196.70898 32.177837
404.01663 196.11685 38.348675
413.66806 194.16136 44.99799
423.0809 190.85838 52.103878
432.0674 186.25043 59.642464
440.447 180.40599 67.58765
448.04947 173.41843 75.91094
454.71973 165.40454 84.583
460.31927 156.502 93.57099
464.714 146.8659 102.78939
465.10474 136.6719 102.78939
331.7355 141.88701 0.10442734
332.46957 150.60764 0.74744225
334.52994 159.14594 1.9752681
337.87997 167.32375 3.7853122
342.4593 174.9678 6.1742964
348.18332 181.911 9.136409
354.94513 187.99939 12.66408
362.61743 193.0952 16.747862
371.05457 197.07889 21.376371
380.09525 199.85164 26.536018
389.539 201.30815 32.177837
399.25467 201.46019 38.348675
409.02747 200.24925 44.99799
418.66553 197.6765 52.103878
427.97842 193.76997 59.642464
436.78076 188.58415 67.58765
444.89584 182.19905 75.91094
452.16 174.71928 84.583
458.4246 166.27151 93.57099
463.54404 157.0001 102.78939
467.44687 147.07573 112.30622
467.84564 136.6719 112.30622
331.33688 141.85641 0.10442734
331.40125 150.60764 0.74744225
332.80194 159.2786 1.9752681
335.51617 167.68886 3.7853122
339.4969 175.66103 6.1742964
344.67264 183.02202 9.136409
350.94855 189.61017 12.66408
358.20822 195.27832 16.747862
366.31567 199.89618 21.376371
375.11755 203.35286 26.536018
384.42215 205.52802 32.177837
394.09766 206.42332 38.348675
403.93448 205.96405 44.99799
413.74118 204.13663 52.103878
423.3258 200.95447 59.642464
432.4993 196.45766 67.58765
441.07935 190.71251 75.91094
448.89474 183.81075 84.583
455.7876 175.86731 93.57099
461.60178 167.015 102.78939
466.25284 157.4185 112.30622
469.62497 147.24295 122.03291
470.03018 136.6719 122.03291
330.94177 141.79538 0.10442734
330.33603 150.52585 0.74744225
331.06888 159.2786 1.9752681
333.13132 167.87195 3.7853122
336.4901 176.12546 6.1742964
341.0872 183.86104 9.136409
346.84036 190.91028 12.66408
353.64487 197.11754 16.747862
361.37503 202.34245 21.376371
369.88647 206.46277 26.536018
378.99725 209.3438 32.177837
388.57584 210.97714 38.348675
398.41895 211.2722 44.99799
408.3368 210.20085 52.103878
418.13687 207.76172 59.642464
427.62766 203.98033 67.58765
436.6223 198.90883 75.91094
444.9431 192.62558 84.583
452.42383 185.2331 93.57099
458.89856 176.85182 102.78939
464.2706 167.63953 112.30622
468.41177 157.75197 122.03291
471.23654 147.36668 131.9314
471.64648 136.6719 131.9314
330.5525 141.70428 0.10442734
329.2802 150.36276 0.74744225
329.34088 159.14594 1.9752681
330.73947 167.87195 3.7853122
333.45663 176.35835 6.1742964
337.44806 184.42314 9.136409
342.64474 191.89209 12.66408
348.9541 198.60202 16.747862
356.26163 204.40334 21.376371
364.43268 209.16312 26.536018
373.29617 212.73311 32.177837
382.72162 215.0949 38.348675
392.51328 216.14258 44.99799
402.484 215.83357 52.103878
412.44205 214.15178 59.642464
422.1945 211.108 67.58765
431.55096 206.73991 75.91094
440.3283 201.11206 84.583
448.35297 194.3139 93.57099
455.4503 186.45287 102.78939
461.51175 177.67882 112.30622
466.39764 168.13728 122.03291
470.00912 157.9987 131.9314
472.27225 147.4462 141.96239
472.6852 136.6719 141.96239
330.17133 141.58366 0.10442734
328.24 150.11934 0.74744225
327.62814 158.88138 1.9752681
328.35464 167.68886 3.7853122
330.41418 176.35835 6.1742964
333.77655 184.70502 9.136409
338.38623 192.54987 12.66408
344.16345 199.72307 16.747862
351.00546 206.06676 21.376371
358.78818 211.43805 26.536018
367.3524 215.67607 32.177837
376.5694 218.75244 38.348675
386.2521 220.54659 44.99799
396.21725 221.00174 52.103878
406.2748 220.08716 59.642464
416.2316 217.79886 67.58765
425.89502 214.15982 75.91094
435.07742 209.22037 84.583
443.5989 203.05644 93.57099
451.27716 195.76176 102.78939
457.9925 187.47746 112.30622
463.59445 178.33794 122.03291
467.97144 168.50555 131.9314
471.03568 158.15726 141.96239
472.7255 147.48099 152.08447
473.1398 136.6719 152.08447
329.8005 141.4342 0.10442734
327.22144 149.79701 0.74744225
325.94064 158.4865 1.9752681
325.99084 167.32375 3.7853122
327.38068 176.12546 6.1742964
330.09427 184.70502 9.136409
334.0899 192.87971 12.66408
339.30106 200.4741 16.747862
345.63736 207.32294 21.376371
352.98608 213.27423 26.536018
361.20078 218.1554 32.177837
370.1552 221.92828 38.348675
379.67218 224.45837 44.99799
389.57324 225.67502 52.103878
399.6713 225.53304 59.642464
409.77405 224.01363 67.58765
419.68768 221.12498 75.91094
429.22125 216.90294 84.583
438.18958 211.40942 93.57099
446.40372 204.7239 102.78939
453.7335 196.97797 112.30622
460.01865 188.29408 122.03291
465.13544 178.8256 131.9314
468.98285 168.74223 141.96239
471.48495 158.22665 152.08447
472.5926 147.4708 162.25633
473.00653 136.6719 162.25633
329.4422 141.2568 0.10442734
326.23056 149.39764 0.74744225
324.28836 157.9636 1.9752681
323.6619 166.77875 3.7853122
324.3739 175.66103 6.1742964
326.42276 184.42314 9.136409
329.7809 192.87971 12.66408
334.39545 200.85074 16.747862
340.18887 208.16452 21.376371
347.0605 214.66089 26.536018
354.87738 220.15656 32.177837
363.51675 224.60384 38.348675
372.81213 227.85501 44.99799
382.591 229.826 52.103878
392.6703 230.45743 59.642464
402.8597 229.71584 67.58765
412.96536 227.59456 75.91094
422.79416 224.11469 84.583
432.1567 219.3238 93.57099
440.85852 213.2867 102.78939
448.7597 206.12457 112.30622
455.6912 197.9473 122.03291
461.51776 188.89828 131.9314
466.12576 179.13902 141.96239
469.42548 168.84581 152.08447
471.35324 158.2063 162.25633
471.8728 147.41553 172.43552
472.28464 136.6719 172.43552
329.09857 141.0525 0.10442734
325.27313 148.9236 0.74744225
322.68094 157.31573 1.9752681
321.38153 166.05708 3.7853122
321.4115 174.9678 6.1742964
322.7836 183.86104 9.136409
325.48456 192.54987 12.66408
329.47537 200.85074 16.747862
334.69196 208.58653 21.376371
341.0461 215.58986 26.536018
348.41937 221.66779 32.177837
356.69296 226.76335 38.348675
365.7122 230.71655 44.99799
375.3115 233.43031 52.103878
385.31287 234.83145 59.642464
395.52917 234.87202 67.58765
405.76755 233.53056 75.91094
415.8339 230.8133 84.583
425.5357 226.75316 93.57099
434.6741 221.39987 102.78939
443.10037 214.8636 112.30622
450.63748 207.2409 122.03291
457.13965 198.66447 131.9314
462.4812 189.28658 141.96239
466.55914 179.27617 152.08447
469.29572 168.81544 162.25633
470.6398 158.09612 172.43552
470.56894 147.31543 182.57616
470.97693 136.6719 182.57616
328.77155 140.8225 0.10442734
324.35483 148.37766 0.74744225
321.1278 156.54674 1.9752681
319.1631 165.16296 3.7853122
318.51086 174.04984 6.1742964
319.19818 183.02202 9.136409
321.22607 191.89209 12.66408
324.56976 200.4741 16.747862
329.17886 208.58653 21.376371
334.97824 216.05571 26.536018
341.86465 222.68022 32.177837
349.7239 228.39418 38.348675
358.41403 233.02618 44.99799
367.77744 236.46681 52.103878
377.6422 238.62944 59.642464
387.8254 239.45195 67.58765
398.13644 238.89815 75.91094
408.38126 236.95943 84.583
418.36542 233.65387 93.57099
427.88678 229.01584 102.78939
436.7887 223.14377 112.30622
444.88718 216.1204 122.03291
452.0268 208.06686 131.9314
458.07053 199.12538 141.96239
462.90283 189.45651 152.08447
466.4321 179.23596 162.25633
468.5928 168.65096 172.43552
469.3474 157.89648 182.57616
469.46567 147.23073 188.8457
469.8704 136.6719 188.8457
328.4631 140.56812 0.10442734
323.48102 147.76303 0.74744225
319.63812 155.66112 1.9752681
317.0196 164.10165 3.7853122
315.689 172.91252 6.1742964
315.68747 181.911 9.136409
317.03043 190.91028 12.66408
319.70737 199.72307 16.747862
323.68195 208.16452 21.376371
328.89255 216.05571 26.536018
335.25165 223.18793 32.177837
342.65042 229.48674 38.348675
350.96048 234.77039 44.99799
360.03305 238.91768 52.103878
369.70334 241.8291 59.642464
379.7937 243.42871 67.58765
390.11685 243.66583 75.91094
400.48 242.51703 84.583
410.6879 239.98546 93.57099
420.53638 236.08989 102.78939
429.86166 230.91649 112.30622
438.47403 224.53366 122.03291
446.2092 217.05028 131.9314
452.91965 208.59769 141.96239
458.4779 199.32709 152.08447
462.7792 189.4067 162.25633
465.74384 179.01816 172.43552
467.3195 168.353 182.57616
468.25388 157.72758 188.8457
467.22684 147.05884 198.83818
467.62497 136.6719 198.83818
328.17505 140.29088 0.10442734
322.6568 147.08331 0.74744225
318.22058 154.66405 1.9752681
314.96362 162.87938 3.7853122
312.96246 171.56253 6.1742964
312.27213 180.53448 9.136409
312.92227 189.61017 12.66408
314.91672 198.60202 16.747862
318.23346 207.32294 21.376371
322.8247 215.58986 26.536018
328.61917 223.18793 32.177837
335.51407 230.03462 38.348675
343.3953 235.9389 44.99799
352.12375 240.76852 52.103878
361.54282 244.41165 59.642464
371.4811 246.77898 67.58765
381.75583 247.80565 75.91094
392.1765 247.45349 84.583
402.54825 245.71075 93.57099
412.66602 242.5805 102.78939
422.36 238.13614 112.30622
431.43567 232.4313 122.03291
439.72098 225.56201 131.9314
447.0588 217.64789 141.96239
453.3104 208.82999 152.08447
458.3585 199.26796 162.25633
462.10965 189.13684 172.43552
464.4971 178.6236 182.57616
466.24207 168.10088 188.8457
466.03473 157.38481 198.83818
464.42618 146.84381 208.6769
464.8161 136.6719 208.6769
327.90906 139.99242 0.10442734
321.88702 146.34248 0.74744225
316.88354 153.5614 1.9752681
313.00726 161.5033 3.7853122
310.3473 170.0078 6.1742964
308.9722 178.90057 9.136409
308.92566 187.99939 12.66408
310.22595 197.11754 16.747862
312.86536 206.06676 21.376371
316.81033 214.66089 26.536018
322.00616 222.68022 32.177837
328.35672 230.03462 38.348675
335.76285 236.52487 44.99799
344.096 242.00848 52.103878
353.20853 246.36194 59.642464
362.93646 249.48311 67.58765
373.10245 251.29327 75.91094
383.51953 251.73985 84.583
393.99423 250.79617 93.57099
404.32193 248.44963 102.78939
414.32764 244.76035 112.30622
423.81342 239.767 122.03291
432.60025 233.5521 131.9314
440.52237 226.2229 141.96239
447.43063 217.90942 152.08447
453.19586 208.76187 162.25633
457.71155 198.94763 172.43552
460.89676 188.648 182.57616
463.44214 178.28973 188.8457
464.05573 167.58925 198.83818
463.2588 156.95604 208.6769
461.07864 146.5868 218.31879
461.45868 136.6719 218.31879
327.6667 139.67445 0.10442734
321.17624 145.54492 0.74744225
315.63483 152.35963 1.9752681
311.16196 159.9815 3.7853122
307.8588 168.25743 6.1742964
305.80698 177.01884 9.136409
305.06412 186.08742 12.66408
305.66257 195.27832 16.747862
307.6092 204.40334 21.376371
310.8847 213.27423 26.536018
315.45142 221.66779 32.177837
321.2204 229.48674 38.348675
328.10794 236.52487 44.99799
335.9969 242.6303 52.103878
344.74942 247.66853 59.642464
354.2099 251.52519 67.58765
364.2075 254.10826 75.91094
374.55978 255.35095 84.583
385.076 255.21187 93.57099
395.55304 253.66278 102.78939
405.8118 250.75026 112.30622
415.65198 246.4977 122.03291
424.88876 240.97365 131.9314
433.3487 234.27238 141.96239
440.87308 226.51213 152.08447
447.32162 217.83275 162.25633
452.57532 208.39297 172.43552
456.5396 198.36739 182.57616
459.87045 188.23436 188.8457
461.30133 177.61224 198.83818
461.32074 166.94923 208.6769
459.9407 156.44354 218.31879
457.2028 146.28925 227.7205
457.5714 136.6719 227.7205
327.44937 139.33888 0.10442734
320.5286 144.69528 0.74744225
314.48178 151.0658 1.9752681
309.4386 158.32292 3.7853122
305.5116 166.3217 6.1742964
302.79514 174.90034 9.136409
301.36023 183.88544 12.66408
301.2534 193.0952 16.747862
302.4958 202.34245 21.376371
305.08264 211.43805 26.536018
308.9934 220.15656 32.177837
314.1469 228.39418 38.348675
320.47552 235.9389 44.99799
327.87393 242.6303 52.103878
336.21512 248.32376 59.642464
345.3526 252.8933 67.58765
355.1231 256.23407 75.91094
365.34995 258.2656 84.583
375.84592 258.93192 93.57099
386.4108 258.1894 102.78939
396.86243 256.0707 112.30622
406.99924 252.58388 122.03291
416.6318 247.78311 131.9314
425.57986 241.74913 141.96239
433.6762 234.58762 152.08447
440.77023 226.42734 162.25633
446.73114 217.41742 172.43552
451.45126 207.72472 182.57616
455.548 197.87639 188.8457
457.7878 187.39497 198.83818
458.62338 176.76474 208.6769
458.05164 166.18423 218.31879
456.09903 155.85014 227.7205
452.8207 145.95282 236.83994
453.17645 136.6719 236.83994
327.25836 138.98766 0.10442734
319.94788 143.79855 0.74744225
313.43115 149.6875 1.9752681
307.84723 156.53728 3.7853122
303.31946 164.21199 6.1742964
299.95428 172.55751 9.136409
297.8358 181.4064 12.66408
297.02426 190.58096 16.747862
297.5551 199.89618 21.376371
299.43814 209.16312 26.536018
302.67004 218.1554 32.177837
307.17786 226.76335 38.348675
312.91034 234.77039 44.99799
319.7748 242.00848 52.103878
327.6557 248.32376 59.642464
336.41656 253.57935 67.58765
345.90268 257.65826 75.91094
355.944 260.46667 84.583
366.3582 261.9345 93.57099
376.94888 262.0029 102.78939
387.532 260.6905 112.30622
397.906 257.98987 122.03291
407.8778 253.94054 131.9314
417.2615 248.60922 141.96239
425.88232 242.0885 152.08447
433.5802 234.4952 162.25633
440.21332 225.96803 172.43552
445.66156 216.66508 182.57616
450.50015 207.15926 188.8457
453.5357 196.88005 198.83818
455.18256 186.34497 208.6769
455.42242 175.75174 218.31879
454.2666 165.29851 227.7205
451.75555 155.17926 236.83994
447.958 145.57948 245.63599
448.29947 136.6719 245.63599
327.09482 138.62283 0.10442734
319.4375 142.86 0.74744225
312.4891 148.23283 1.9752681
306.39722 154.63506 3.7853122
301.29526 161.94064 6.1742964
297.3011 170.00409 9.136409
294.51144 178.66484 12.66408
293 187.75035 16.747862
292.81622 197.07889 21.376371
293.98434 206.46277 26.536018
296.51843 215.67607 32.177837
300.35406 224.60384 38.348675
305.4568 233.02618 44.99799
311.74707 240.76852 52.103878
319.1214 247.66853 59.642464
327.45425 253.57935 67.58765
336.60028 258.37244 75.91094
346.39716 261.94128 84.583
356.6684 264.202 93.57099
367.2228 265.08087 102.78939
377.87537 264.58246 112.30622
388.42566 262.68387 122.03291
398.67816 259.4098 131.9314
408.44244 254.81242 141.96239
417.53708 248.97075 152.08447
425.79364 241.989 162.25633
433.06006 233.99461 172.43552
439.20444 225.13602 182.57616
444.7565 216.02847 188.8457
448.57004 206.0118 198.83818
451.0185 195.6337 208.6769
452.06857 185.0899 218.31879
451.71634 174.57887 227.7205
449.98727 164.2971 236.83994
446.93573 154.43478 245.63599
442.64468 145.17155 254.06783
442.9705 136.6719 254.06783
326.9597 138.24657 0.10442734
319.0005 141.88515 0.74744225
311.6612 146.71031 1.9752681
305.0971 152.62741 3.7853122
299.45087 159.52103 6.1742964
294.85117 167.25505 9.136409
291.40674 175.67685 12.66408
289.20422 184.62001 16.747862
288.30692 193.9071 21.376371
288.75327 203.35286 26.536018
290.57465 212.73311 32.177837
293.7156 221.92828 38.348675
298.15863 230.71655 44.99799
303.83777 238.91768 52.103878
310.66226 246.36194 59.642464
318.51822 252.8933 67.58765
327.2705 258.37244 75.91094
336.76544 262.68073 84.583
346.8335 265.7211 93.57099
357.28967 267.40533 102.78939
367.9491 267.72382 112.30622
378.61377 266.63843 122.03291
389.08682 264.15875 131.9314
399.17438 260.32233 141.96239
408.6895 255.19398 152.08447
417.4563 248.86476 162.25633
425.31335 241.45006 172.43552
432.11783 233.08781 182.57616
438.35077 224.43199 188.8457
442.9199 214.73663 198.83818
446.1556 204.57642 208.6769
448.0097 194.14395 218.31879
448.46313 183.6368 227.7205
447.52618 173.25282 236.83994
445.23856 163.18585 245.63599
441.6692 153.62132 254.06783
436.90607 144.73097 262.10742
437.215 136.6719 262.10742
326.77762 137.46857 0.10442734
318.1529 138.80074 0.74744225
309.57724 140.12534 1.9752681
301.07837 141.43806 3.7853122
292.68527 142.73445 6.1742964
284.43036 144.0095 9.136409
276.34555 145.25829 12.66408
268.46213 146.47595 16.747862
260.8114 147.65768 21.376371
253.42433 148.79868 26.536018
246.37051 149.88821 32.177837
239.59909 150.93413 38.348675
233.18019 151.92558 44.99799
227.1419 152.85825 52.103878
221.51103 153.728 59.642464
216.31322 154.53084 67.58765
211.57281 155.26305 75.91094
207.31189 155.92119 84.583
203.55154 156.502 93.57099
200.32677 157.0001 102.78939
197.61797 157.4185 112.30622
195.45905 157.75197 122.03291
193.8617 157.9987 131.9314
192.83513 158.15726 141.96239
192.38586 158.22665 152.08447
192.51758 158.2063 162.25633
193.23102 158.09612 172.43552
194.52339 157.89648 182.57616
195.61694 157.72758 188.8457
197.83607 157.38481 198.83818
200.61203 156.95604 208.6769
203.9301 156.44354 218.31879
207.77179 155.85014 227.7205
212.11525 155.17926 236.83994
216.93509 154.43478 245.63599
222.20161 153.62132 254.06783
227.88966 152.74275 262.10742
232.82555 151.98036 268.35815
239.16124 151.00175 275.56104
245.7954 149.97705 282.2621
252.6794 148.91374 288.43115
259.75894 147.82024 294.04025
266.97324 146.70592 299.06424
274.37015 145.5634 303.54684
276.54358 145.22769 304.74146
283.82056 144.1037 308.34958
290.99606 142.99536 311.3281
297.9841 141.916 313.67838
304.68613 140.88081 315.41013
310.99142 139.90689 316.54602
316.78088 139.01266 317.12643
321.80984 138.23589 317.21667
326.76437 137.47061 316.83606
330.41385 136.90692 316.12762
330.40033 136.78975 316.12762
326.7184 137.07243 316.83606
321.71985 137.45619 317.21667
316.64618 137.84572 317.12643
310.80524 138.29416 316.54602
304.44388 138.78255 315.41013
297.68228 139.30167 313.67838
290.63214 139.84294 311.3281
283.39285 140.39873 308.34958
276.05118 140.96239 304.74146
273.8584 141.13074 303.54684
266.39575 141.70367 299.06424
259.1173 142.26248 294.04025
251.97484 142.81084 288.43115
245.02965 143.34406 282.2621
238.33653 143.85791 275.56104
231.9445 144.34865 268.35815
226.96474 144.73097 262.10742
221.22614 145.17155 254.06783
215.9128 145.57948 245.63599
211.0501 145.95282 236.83994
206.66803 146.28925 227.7205
202.79218 146.5868 218.31879
199.44463 146.84381 208.6769
196.64398 147.05884 198.83818
194.40514 147.23073 188.8457
193.30186 147.31543 182.57616
191.998 147.41553 172.43552
191.27821 147.4708 162.25633
191.14532 147.48099 152.08447
191.59857 147.4462 141.96239
192.63428 147.36668 131.9314
194.24583 147.24295 122.03291
196.42395 147.07573 112.30622
199.15683 146.8659 102.78939
202.41028 146.61613 93.57099
206.20404 146.32486 84.583
210.50284 145.99483 75.91094
215.28539 145.62766 67.58765
220.52942 145.22504 59.642464
226.21033 144.7889 52.103878
232.3023 144.32118 44.99799
238.77826 143.82399 38.348675
245.60988 143.2995 32.177837
252.7264 142.75313 26.536018
260.17914 142.18095 21.376371
267.8979 141.58835 16.747862
275.85138 140.97772 12.66408
284.00806 140.3515 9.136409
292.33633 139.7121 6.1742964
300.80405 139.062 3.7853122
309.37848 138.4037 1.9752681
318.03036 137.73946 0.74744225
326.73178 137.07141 0.10442734
326.71646 136.6719 0.10442734
317.98944 136.6719 0.74744225
309.3121 136.6719 1.9752681
300.71243 136.6719 3.7853122
292.21982 136.6719 6.1742964
283.867 136.6719 9.136409
275.6863 136.6719 12.66408
267.70944 136.6719 16.747862
259.96796 136.6719 21.376371
252.4933 136.6719 26.536018
245.35583 136.6719 32.177837
238.50412 136.6719 38.348675
232.00911 136.6719 44.99799
225.8992 136.6719 52.103878
220.20157 136.6719 59.642464
214.94211 136.6719 67.58765
210.14548 136.6719 75.91094
205.83403 136.6719 84.583
202.02911 136.6719 93.57099
198.76608 136.6719 102.78939
196.02516 136.6719 112.30622
193.84064 136.6719 122.03291
192.22433 136.6719 131.9314
191.1856 136.6719 141.96239
190.73102 136.6719 152.08447
190.86429 136.6719 162.25633
191.58618 136.6719 172.43552
192.89389 136.6719 182.57616
194.00041 136.6719 188.8457
196.24585 136.6719 198.83818
199.05472 136.6719 208.6769
202.41212 136.6719 218.31879
206.2994 136.6719 227.7205
210.69435 136.6719 236.83994
215.57135 136.6719 245.63599
220.90033 136.6719 254.06783
226.65582 136.6719 262.10742
231.65025 136.6719 268.35815
238.06108 136.6719 275.56104
244.7739 136.6719 282.2621
251.73953 136.6719 288.43115
258.903 136.6719 294.04025
266.20288 136.6719 299.06424
273.6875 136.6719 303.54684
275.8867 136.6719 304.74146
283.25 136.6719 308.34958
290.5106 136.6719 311.3281
297.58148 136.6719 313.67838
304.36298 136.6719 315.41013
310.74307 136.6719 316.54602
316.60117 136.6719 317.12643
321.68976 136.6719 317.21667
326.70306 136.6719 316.83606
330.3958 136.6719 316.12762
332.61084 136.791 316.00385
332.61865 136.73167 316.00385
332.98846 136.76404 371.31757
332.9764 136.85545 371.31757
331.9354 136.6719 371.36154
332.99246 136.6719 371.31757
334.04086 136.6719 371.1866
334.03284 136.85541 371.1866
335.0803 136.6719 370.96924
335.06833 136.946 370.96924
336.10416 136.6719 370.66714
336.0883 137.03523 370.66714
337.11206 136.6719 370.28067
337.09238 137.12308 370.28067
338.10107 136.6719 369.81046
338.0776 137.20927 369.81046
339.06827 136.6719 369.25696
339.0411 137.29356 369.25696
340.0107 136.6719 368.6207
339.97998 137.3757 368.6207
340.22025 136.6719 368.46524
340.18872 137.39397 368.46524
341.139 136.6719 367.71848
341.10397 137.47404 367.71848
342.01404 136.6719 366.89896
341.9757 137.55031 366.89896
342.8536 136.6719 365.99847
342.81204 137.62349 365.99847
343.65378 136.6719 365.01822
343.6092 137.69322 365.01822
344.41074 136.6719 363.95935
344.36328 137.7592 363.95935
345.12054 136.6719 362.82358
345.07037 137.82106 362.82358
334.00885 137.0375 371.1866
335.0325 137.218 370.96924
336.04083 137.3958 370.66714
337.03342 137.57082 370.28067
338.0074 137.74255 369.81046
338.9599 137.9105 369.25696
339.88803 138.07416 368.6207
340.0944 138.11055 368.46524
340.99918 138.2701 367.71848
